ncols        176
nrows        32
xllcorner    424877.014000000025
yllcorner    5275932.534599999897
dx           1.000288549618
dy           0.999587335093
NODATA_value  -3.4028234663852885981e+38
2109.8701171875 2110.77001953125 2111.5400390625 2111.8798828125 2112 2112.340087890625 2112.820068359375 2113.070068359375 2113.35009765625 2113.739990234375 2114.1298828125 2114.510009765625 2114.919921875 2115.330078125 2115.800048828125 2116.320068359375 2116.719970703125 2117.25 2117.840087890625 2118.5400390625 2119.300048828125 2120.06005859375 2120.85009765625 2121.52001953125 2121.949951171875 2122.43994140625 2122.8798828125 2123.25 2123.719970703125 2124.31005859375 2125.030029296875 2125.550048828125 2125.81005859375 2126.06005859375 2126.419921875 2126.669921875 2126.7099609375 2126.780029296875 2127.14990234375 2127.669921875 2128.1298828125 2128.56005859375 2128.89990234375 2129.0400390625 2128.909912109375 2128.72998046875 2128.81005859375 2128.9599609375 2129.010009765625 2128.840087890625 2128.85009765625 2129.050048828125 2129.159912109375 2129.2900390625 2129.330078125 2129.389892578125 2129.510009765625 2129.570068359375 2129.6201171875 2129.56005859375 2129.550048828125 2129.72998046875 2129.840087890625 2129.8701171875 2129.8798828125 2129.89990234375 2129.9599609375 2130 2129.97998046875 2129.8798828125 2129.909912109375 2130.0400390625 2130.06005859375 2130.02001953125 2130.0400390625 2130.080078125 2130.1298828125 2130.139892578125 2130.110107421875 2130.02001953125 2130.0400390625 2130.02001953125 2130.030029296875 2130.14990234375 2130.2900390625 2130.340087890625 2130.489990234375 2130.6201171875 2130.679931640625 2130.929931640625 2131.280029296875 2131.47998046875 2131.5 2131.43994140625 2131.3701171875 2131.320068359375 2131.25 2131.27001953125 2131.2900390625 2131.340087890625 2131.360107421875 2131.3701171875 2131.39990234375 2131.47998046875 2131.550048828125 2131.570068359375 2131.610107421875 2131.68994140625 2131.760009765625 2131.820068359375 2131.919921875 2131.929931640625 2131.9599609375 2131.9599609375 2131.919921875 2131.969970703125 2132.110107421875 2132.080078125 2132.10009765625 2132.219970703125 2132.35009765625 2132.449951171875 2132.610107421875 2132.760009765625 2132.93994140625 2133.080078125 2133.27001953125 2133.580078125 2133.949951171875 2134.260009765625 2134.52001953125 2134.72998046875 2134.949951171875 2135.179931640625 2135.320068359375 2135.429931640625 2135.56005859375 2135.719970703125 2135.919921875 2136.02001953125 2136.06005859375 2136.030029296875 2135.989990234375 2136 2136.090087890625 2136.1298828125 2136.199951171875 2136.280029296875 2136.3701171875 2136.4599609375 2136.52001953125 2136.52001953125 2136.449951171875 2136.52001953125 2136.64990234375 2136.800048828125 2136.8701171875 2136.889892578125 2136.93994140625 2137.06005859375 2137.169921875 2137.179931640625 2137.179931640625 2137.330078125 2137.510009765625 2137.590087890625 2137.68994140625 2137.669921875 2137.64990234375 2137.639892578125 2137.6298828125 2137.580078125 2137.47998046875 2137.4599609375 2137.510009765625 2137.52001953125
2109.340087890625 2110.3798828125 2111.14990234375 2111.469970703125 2111.800048828125 2112.18994140625 2112.639892578125 2112.969970703125 2113.179931640625 2113.47998046875 2113.840087890625 2114.2099609375 2114.669921875 2115.179931640625 2115.639892578125 2116.199951171875 2116.719970703125 2117.179931640625 2117.60009765625 2118.2099609375 2118.93994140625 2119.7099609375 2120.469970703125 2121.1201171875 2121.699951171875 2122.35009765625 2122.830078125 2123.159912109375 2123.6201171875 2124.330078125 2125.22998046875 2125.830078125 2126.139892578125 2126.35009765625 2126.659912109375 2126.89990234375 2127.1201171875 2127.389892578125 2127.7900390625 2128.280029296875 2128.800048828125 2129.22998046875 2129.5 2129.570068359375 2129.52001953125 2129.419921875 2129.389892578125 2129.469970703125 2129.570068359375 2129.4599609375 2129.43994140625 2129.389892578125 2129.429931640625 2129.550048828125 2129.60009765625 2129.719970703125 2129.909912109375 2130.010009765625 2130.050048828125 2129.949951171875 2130.070068359375 2130.260009765625 2130.35009765625 2130.31005859375 2130.3701171875 2130.389892578125 2130.43994140625 2130.510009765625 2130.449951171875 2130.25 2130.27001953125 2130.43994140625 2130.5400390625 2130.5400390625 2130.56005859375 2130.64990234375 2130.68994140625 2130.699951171875 2130.669921875 2130.570068359375 2130.5400390625 2130.489990234375 2130.510009765625 2130.60009765625 2130.77001953125 2130.840087890625 2130.989990234375 2131.159912109375 2131.300048828125 2131.580078125 2131.840087890625 2131.909912109375 2131.8798828125 2131.8798828125 2131.830078125 2131.75 2131.699951171875 2131.68994140625 2131.68994140625 2131.77001953125 2131.81005859375 2131.820068359375 2131.820068359375 2131.8798828125 2131.929931640625 2131.969970703125 2132.10009765625 2132.239990234375 2132.31005859375 2132.2900390625 2132.35009765625 2132.389892578125 2132.389892578125 2132.3701171875 2132.360107421875 2132.419921875 2132.5 2132.5 2132.550048828125 2132.659912109375 2132.75 2132.860107421875 2133 2133.169921875 2133.3701171875 2133.5400390625 2133.739990234375 2134.0400390625 2134.3701171875 2134.6201171875 2134.860107421875 2135.10009765625 2135.330078125 2135.550048828125 2135.72998046875 2135.860107421875 2135.989990234375 2136.169921875 2136.35009765625 2136.35009765625 2136.35009765625 2136.43994140625 2136.39990234375 2136.3798828125 2136.449951171875 2136.47998046875 2136.510009765625 2136.580078125 2136.739990234375 2136.85009765625 2136.909912109375 2136.969970703125 2136.989990234375 2137.030029296875 2137.14990234375 2137.2900390625 2137.320068359375 2137.3701171875 2137.469970703125 2137.570068359375 2137.639892578125 2137.669921875 2137.699951171875 2137.820068359375 2137.969970703125 2138.070068359375 2138.14990234375 2138.14990234375 2138.1298828125 2138.110107421875 2138.1298828125 2138.110107421875 2138.02001953125 2137.97998046875 2138.030029296875 2138.06005859375
2108.6298828125 2109.60009765625 2110.39990234375 2110.919921875 2111.570068359375 2112.110107421875 2112.52001953125 2112.889892578125 2113.06005859375 2113.1298828125 2113.39990234375 2113.820068359375 2114.320068359375 2114.969970703125 2115.5400390625 2116.10009765625 2116.56005859375 2117.050048828125 2117.590087890625 2118.27001953125 2119.0400390625 2119.77001953125 2120.429931640625 2121.06005859375 2121.780029296875 2122.409912109375 2122.840087890625 2123.1201171875 2123.429931640625 2124.070068359375 2124.909912109375 2125.5 2125.8798828125 2126.300048828125 2126.77001953125 2127.090087890625 2127.469970703125 2127.860107421875 2128.25 2128.590087890625 2128.93994140625 2129.330078125 2129.64990234375 2129.780029296875 2129.840087890625 2129.820068359375 2129.780029296875 2129.820068359375 2129.93994140625 2129.9599609375 2129.9599609375 2129.7900390625 2129.7900390625 2129.85009765625 2129.8701171875 2129.949951171875 2130.25 2130.429931640625 2130.43994140625 2130.3798828125 2130.5 2130.590087890625 2130.7900390625 2130.820068359375 2130.85009765625 2130.8798828125 2130.909912109375 2130.989990234375 2130.889892578125 2130.6298828125 2130.639892578125 2130.8701171875 2131.02001953125 2131.070068359375 2131.080078125 2131.159912109375 2131.22998046875 2131.25 2131.2099609375 2131.1298828125 2131.1298828125 2131.199951171875 2131.31005859375 2131.320068359375 2131.419921875 2131.5 2131.56005859375 2131.699951171875 2131.889892578125 2132.10009765625 2132.219970703125 2132.27001953125 2132.300048828125 2132.300048828125 2132.280029296875 2132.199951171875 2132.139892578125 2132.1201171875 2132.10009765625 2132.2099609375 2132.2900390625 2132.2900390625 2132.27001953125 2132.31005859375 2132.409912109375 2132.5 2132.669921875 2132.800048828125 2132.85009765625 2132.840087890625 2132.830078125 2132.85009765625 2132.85009765625 2132.830078125 2132.830078125 2132.8798828125 2132.919921875 2132.9599609375 2133.02001953125 2133.10009765625 2133.2099609375 2133.300048828125 2133.389892578125 2133.56005859375 2133.780029296875 2134.0400390625 2134.25 2134.489990234375 2134.77001953125 2135.02001953125 2135.22998046875 2135.43994140625 2135.64990234375 2135.8798828125 2136.110107421875 2136.280029296875 2136.39990234375 2136.550048828125 2136.6298828125 2136.429931640625 2136.39990234375 2136.719970703125 2136.739990234375 2136.760009765625 2136.840087890625 2136.860107421875 2136.860107421875 2136.9599609375 2137.139892578125 2137.260009765625 2137.320068359375 2137.419921875 2137.510009765625 2137.5400390625 2137.64990234375 2137.760009765625 2137.77001953125 2137.889892578125 2138 2138.080078125 2138.10009765625 2138.14990234375 2138.219970703125 2138.31005859375 2138.389892578125 2138.469970703125 2138.570068359375 2138.6201171875 2138.639892578125 2138.590087890625 2138.6201171875 2138.64990234375 2138.610107421875 2138.550048828125 2138.570068359375 2138.6298828125
2107.85009765625 2108.68994140625 2109.580078125 2110.4599609375 2111.1201171875 2111.760009765625 2112.18994140625 2112.510009765625 2112.699951171875 2112.860107421875 2113.159912109375 2113.550048828125 2114.110107421875 2114.840087890625 2115.449951171875 2115.929931640625 2116.389892578125 2117 2117.679931640625 2118.360107421875 2119.02001953125 2119.580078125 2120.090087890625 2120.72998046875 2121.580078125 2122.219970703125 2122.6298828125 2123.030029296875 2123.340087890625 2123.860107421875 2124.5400390625 2125.169921875 2125.610107421875 2126.1298828125 2126.6298828125 2127 2127.419921875 2127.860107421875 2128.25 2128.530029296875 2128.739990234375 2129.080078125 2129.580078125 2129.8701171875 2130.010009765625 2130.080078125 2130.090087890625 2130.110107421875 2130.179931640625 2130.280029296875 2130.31005859375 2130.2900390625 2130.199951171875 2130.239990234375 2130.2900390625 2130.31005859375 2130.590087890625 2130.830078125 2130.909912109375 2131 2131 2130.820068359375 2130.989990234375 2131.35009765625 2131.3798828125 2131.3798828125 2131.3798828125 2131.409912109375 2131.330078125 2131.110107421875 2131.139892578125 2131.330078125 2131.510009765625 2131.610107421875 2131.610107421875 2131.659912109375 2131.77001953125 2131.780029296875 2131.679931640625 2131.610107421875 2131.7099609375 2131.969970703125 2132.1298828125 2132.06005859375 2132.030029296875 2132.14990234375 2132.14990234375 2132.2099609375 2132.39990234375 2132.5400390625 2132.639892578125 2132.719970703125 2132.7900390625 2132.81005859375 2132.77001953125 2132.68994140625 2132.60009765625 2132.580078125 2132.510009765625 2132.580078125 2132.72998046875 2132.75 2132.739990234375 2132.7900390625 2132.9599609375 2133.070068359375 2133.18994140625 2133.2900390625 2133.320068359375 2133.360107421875 2133.330078125 2133.340087890625 2133.409912109375 2133.340087890625 2133.300048828125 2133.31005859375 2133.360107421875 2133.389892578125 2133.449951171875 2133.52001953125 2133.659912109375 2133.780029296875 2133.840087890625 2133.97998046875 2134.199951171875 2134.510009765625 2134.72998046875 2134.929931640625 2135.18994140625 2135.429931640625 2135.610107421875 2135.77001953125 2135.989990234375 2136.179931640625 2136.360107421875 2136.4599609375 2136.5400390625 2136.590087890625 2136.699951171875 2136.64990234375 2136.6201171875 2136.89990234375 2137.0400390625 2137.1298828125 2137.169921875 2137.239990234375 2137.280029296875 2137.429931640625 2137.580078125 2137.7099609375 2137.77001953125 2137.8701171875 2137.9599609375 2138.02001953125 2138.1201171875 2138.2099609375 2138.27001953125 2138.389892578125 2138.47998046875 2138.5400390625 2138.570068359375 2138.590087890625 2138.6201171875 2138.669921875 2138.7900390625 2138.8798828125 2139 2139.10009765625 2139.139892578125 2139.10009765625 2139.110107421875 2139.14990234375 2139.1298828125 2139.110107421875 2139.1298828125 2139.199951171875
2107.320068359375 2108.27001953125 2108.919921875 2109.52001953125 2110.409912109375 2111 2111.340087890625 2111.590087890625 2111.860107421875 2112.3798828125 2112.969970703125 2113.389892578125 2113.860107421875 2114.590087890625 2115.199951171875 2115.820068359375 2116.330078125 2116.8701171875 2117.550048828125 2118.18994140625 2118.820068359375 2119.300048828125 2119.639892578125 2120.110107421875 2120.830078125 2121.530029296875 2122.050048828125 2122.570068359375 2123.3798828125 2124.14990234375 2124.8701171875 2125.60009765625 2126.1298828125 2126.5 2126.760009765625 2126.989990234375 2127.27001953125 2127.580078125 2127.9599609375 2128.239990234375 2128.3798828125 2128.7099609375 2129.43994140625 2129.89990234375 2130.030029296875 2130.179931640625 2130.320068359375 2130.31005859375 2130.340087890625 2130.5400390625 2130.610107421875 2130.56005859375 2130.47998046875 2130.5400390625 2130.60009765625 2130.669921875 2130.9599609375 2131.239990234375 2131.409912109375 2131.590087890625 2131.60009765625 2131.340087890625 2131.320068359375 2131.60009765625 2131.760009765625 2131.820068359375 2131.7900390625 2131.669921875 2131.669921875 2131.590087890625 2131.669921875 2131.800048828125 2131.97998046875 2132.14990234375 2132.179931640625 2132.179931640625 2132.2099609375 2132.169921875 2132.070068359375 2132.02001953125 2132.159912109375 2132.31005859375 2132.389892578125 2132.360107421875 2132.39990234375 2132.530029296875 2132.590087890625 2132.68994140625 2132.860107421875 2132.97998046875 2133.080078125 2133.139892578125 2133.22998046875 2133.280029296875 2133.260009765625 2133.179931640625 2133.080078125 2133.06005859375 2132.989990234375 2133.090087890625 2133.239990234375 2133.2900390625 2133.280029296875 2133.2900390625 2133.429931640625 2133.550048828125 2133.570068359375 2133.639892578125 2133.77001953125 2133.840087890625 2133.820068359375 2133.840087890625 2133.89990234375 2133.820068359375 2133.7099609375 2133.72998046875 2133.820068359375 2133.840087890625 2133.860107421875 2133.929931640625 2134.06005859375 2134.239990234375 2134.330078125 2134.449951171875 2134.64990234375 2134.93994140625 2135.159912109375 2135.320068359375 2135.5400390625 2135.800048828125 2135.989990234375 2136.139892578125 2136.320068359375 2136.489990234375 2136.6201171875 2136.5400390625 2136.510009765625 2136.760009765625 2136.949951171875 2137.0400390625 2137.050048828125 2137.219970703125 2137.389892578125 2137.510009765625 2137.580078125 2137.669921875 2137.75 2137.85009765625 2137.989990234375 2138.1201171875 2138.18994140625 2138.320068359375 2138.419921875 2138.5 2138.56005859375 2138.6298828125 2138.719970703125 2138.8701171875 2138.929931640625 2139 2139.030029296875 2139 2138.919921875 2138.9599609375 2139.139892578125 2139.300048828125 2139.449951171875 2139.580078125 2139.64990234375 2139.639892578125 2139.639892578125 2139.64990234375 2139.60009765625 2139.6298828125 2139.68994140625 2139.77001953125
2106.409912109375 2107.39990234375 2108 2108.52001953125 2109.300048828125 2109.820068359375 2110.22998046875 2110.6201171875 2111.159912109375 2111.919921875 2112.580078125 2112.929931640625 2113.360107421875 2114.1298828125 2114.820068359375 2115.590087890625 2116.18994140625 2116.669921875 2117.260009765625 2117.8798828125 2118.4599609375 2118.8798828125 2119.18994140625 2119.639892578125 2120.22998046875 2120.889892578125 2121.530029296875 2122.330078125 2123.590087890625 2124.489990234375 2125.18994140625 2125.840087890625 2126.429931640625 2126.780029296875 2126.93994140625 2127.10009765625 2127.320068359375 2127.52001953125 2127.85009765625 2128.179931640625 2128.469970703125 2128.830078125 2129.389892578125 2129.820068359375 2130.030029296875 2130.219970703125 2130.419921875 2130.469970703125 2130.52001953125 2130.739990234375 2130.719970703125 2130.489990234375 2130.489990234375 2130.669921875 2130.81005859375 2131.02001953125 2131.35009765625 2131.6201171875 2131.760009765625 2131.8798828125 2131.85009765625 2131.7099609375 2131.75 2131.85009765625 2132.0400390625 2132.14990234375 2132.110107421875 2131.929931640625 2132.02001953125 2132.080078125 2132.169921875 2132.2900390625 2132.419921875 2132.469970703125 2132.5400390625 2132.550048828125 2132.510009765625 2132.47998046875 2132.469970703125 2132.419921875 2132.570068359375 2132.64990234375 2132.75 2132.780029296875 2132.780029296875 2132.919921875 2133.050048828125 2133.179931640625 2133.320068359375 2133.409912109375 2133.52001953125 2133.570068359375 2133.6201171875 2133.659912109375 2133.679931640625 2133.669921875 2133.570068359375 2133.550048828125 2133.510009765625 2133.6298828125 2133.780029296875 2133.830078125 2133.820068359375 2133.800048828125 2133.8798828125 2134 2133.9599609375 2134.010009765625 2134.239990234375 2134.360107421875 2134.360107421875 2134.330078125 2134.389892578125 2134.280029296875 2134.139892578125 2134.18994140625 2134.280029296875 2134.280029296875 2134.31005859375 2134.389892578125 2134.510009765625 2134.7099609375 2134.780029296875 2134.8798828125 2135.110107421875 2135.330078125 2135.530029296875 2135.68994140625 2135.8798828125 2136.1201171875 2136.340087890625 2136.510009765625 2136.639892578125 2136.780029296875 2136.909912109375 2136.830078125 2136.820068359375 2137.070068359375 2137.239990234375 2137.389892578125 2137.4599609375 2137.550048828125 2137.7099609375 2137.81005859375 2137.9599609375 2138.080078125 2138.199951171875 2138.239990234375 2138.35009765625 2138.510009765625 2138.639892578125 2138.800048828125 2138.860107421875 2138.919921875 2139 2139.070068359375 2139.1201171875 2139.260009765625 2139.35009765625 2139.409912109375 2139.43994140625 2139.39990234375 2139.360107421875 2139.39990234375 2139.56005859375 2139.679931640625 2139.830078125 2140.02001953125 2140.1298828125 2140.14990234375 2140.169921875 2140.18994140625 2140.169921875 2140.2099609375 2140.280029296875 2140.389892578125
2105.89990234375 2106.669921875 2107.22998046875 2107.830078125 2108.469970703125 2108.969970703125 2109.489990234375 2110.02001953125 2110.659912109375 2111.3798828125 2112.02001953125 2112.469970703125 2113.02001953125 2113.7900390625 2114.4599609375 2115.239990234375 2115.929931640625 2116.43994140625 2116.9599609375 2117.449951171875 2117.969970703125 2118.409912109375 2118.830078125 2119.320068359375 2119.909912109375 2120.530029296875 2121.260009765625 2122.239990234375 2123.39990234375 2124.280029296875 2125.090087890625 2125.820068359375 2126.489990234375 2126.89990234375 2127.080078125 2127.22998046875 2127.3701171875 2127.510009765625 2127.820068359375 2128.159912109375 2128.56005859375 2128.889892578125 2129.25 2129.610107421875 2129.929931640625 2130.18994140625 2130.4599609375 2130.590087890625 2130.669921875 2130.9599609375 2130.909912109375 2130.510009765625 2130.449951171875 2130.7099609375 2131.090087890625 2131.4599609375 2131.75 2132 2132.10009765625 2132.1298828125 2132.080078125 2132.070068359375 2132.179931640625 2132.169921875 2132.2900390625 2132.3798828125 2132.3798828125 2132.280029296875 2132.3798828125 2132.510009765625 2132.6298828125 2132.7900390625 2132.81005859375 2132.6201171875 2132.669921875 2132.81005859375 2132.830078125 2132.780029296875 2132.8701171875 2132.8701171875 2132.989990234375 2133.070068359375 2133.18994140625 2133.25 2133.179931640625 2133.300048828125 2133.489990234375 2133.639892578125 2133.699951171875 2133.7900390625 2133.909912109375 2133.989990234375 2133.989990234375 2134.030029296875 2134.110107421875 2134.14990234375 2134.090087890625 2134.0400390625 2133.989990234375 2134.10009765625 2134.239990234375 2134.31005859375 2134.320068359375 2134.2900390625 2134.320068359375 2134.43994140625 2134.47998046875 2134.570068359375 2134.72998046875 2134.830078125 2134.860107421875 2134.830078125 2134.8701171875 2134.77001953125 2134.6201171875 2134.669921875 2134.75 2134.780029296875 2134.85009765625 2134.9599609375 2135.010009765625 2135.14990234375 2135.179931640625 2135.2900390625 2135.570068359375 2135.75 2135.919921875 2136.10009765625 2136.300048828125 2136.469970703125 2136.669921875 2136.860107421875 2136.969970703125 2137.080078125 2137.199951171875 2137.219970703125 2137.2900390625 2137.389892578125 2137.530029296875 2137.77001953125 2137.8798828125 2137.969970703125 2138.080078125 2138.14990234375 2138.330078125 2138.39990234375 2138.580078125 2138.659912109375 2138.699951171875 2138.860107421875 2139.0400390625 2139.219970703125 2139.260009765625 2139.360107421875 2139.449951171875 2139.52001953125 2139.550048828125 2139.68994140625 2139.800048828125 2139.8701171875 2139.8701171875 2139.860107421875 2139.919921875 2139.989990234375 2140.1201171875 2140.159912109375 2140.199951171875 2140.35009765625 2140.52001953125 2140.6298828125 2140.699951171875 2140.780029296875 2140.8701171875 2140.929931640625 2140.949951171875 2141.0400390625
2105.919921875 2106.489990234375 2106.9599609375 2107.5400390625 2108.199951171875 2108.7099609375 2109.179931640625 2109.679931640625 2110.27001953125 2110.909912109375 2111.610107421875 2112.280029296875 2112.97998046875 2113.719970703125 2114.3701171875 2115.239990234375 2116.090087890625 2116.679931640625 2117.10009765625 2117.409912109375 2117.760009765625 2118.2099609375 2118.679931640625 2119.14990234375 2119.64990234375 2120.199951171875 2120.989990234375 2122.030029296875 2122.949951171875 2124 2125 2125.75 2126.510009765625 2126.989990234375 2127.22998046875 2127.360107421875 2127.3701171875 2127.419921875 2127.68994140625 2128.010009765625 2128.449951171875 2128.860107421875 2129.239990234375 2129.550048828125 2129.840087890625 2130.06005859375 2130.320068359375 2130.580078125 2130.780029296875 2131.080078125 2131.1298828125 2130.860107421875 2130.6201171875 2130.840087890625 2131.3701171875 2131.8798828125 2132.139892578125 2132.409912109375 2132.530029296875 2132.510009765625 2132.52001953125 2132.56005859375 2132.60009765625 2132.47998046875 2132.56005859375 2132.68994140625 2132.760009765625 2132.75 2132.820068359375 2132.989990234375 2133.1298828125 2133.2099609375 2133.159912109375 2132.969970703125 2133.030029296875 2133.219970703125 2133.169921875 2133 2133.169921875 2133.340087890625 2133.320068359375 2133.320068359375 2133.47998046875 2133.6298828125 2133.570068359375 2133.639892578125 2133.840087890625 2133.929931640625 2133.830078125 2133.8701171875 2134.030029296875 2134.18994140625 2134.260009765625 2134.469970703125 2134.64990234375 2134.72998046875 2134.669921875 2134.610107421875 2134.580078125 2134.6201171875 2134.669921875 2134.75 2134.7900390625 2134.780029296875 2134.7900390625 2134.8798828125 2135.010009765625 2135.139892578125 2135.260009765625 2135.31005859375 2135.35009765625 2135.320068359375 2135.320068359375 2135.239990234375 2135.080078125 2135.1298828125 2135.260009765625 2135.3701171875 2135.409912109375 2135.43994140625 2135.389892578125 2135.469970703125 2135.5400390625 2135.7099609375 2135.9599609375 2136.199951171875 2136.31005859375 2136.429931640625 2136.679931640625 2136.840087890625 2136.989990234375 2137.18994140625 2137.320068359375 2137.43994140625 2137.56005859375 2137.6201171875 2137.699951171875 2137.81005859375 2137.909912109375 2138.1201171875 2138.320068359375 2138.419921875 2138.43994140625 2138.5 2138.7099609375 2138.840087890625 2139.02001953125 2139.1298828125 2139.18994140625 2139.300048828125 2139.469970703125 2139.60009765625 2139.64990234375 2139.7900390625 2139.889892578125 2140 2140.10009765625 2140.219970703125 2140.330078125 2140.419921875 2140.409912109375 2140.449951171875 2140.56005859375 2140.639892578125 2140.7099609375 2140.739990234375 2140.719970703125 2140.760009765625 2140.889892578125 2141.080078125 2141.2099609375 2141.320068359375 2141.47998046875 2141.6298828125 2141.679931640625 2141.72998046875
2105.7900390625 2106.300048828125 2106.800048828125 2107.449951171875 2108.139892578125 2108.659912109375 2109.090087890625 2109.679931640625 2110.260009765625 2110.909912109375 2111.60009765625 2112.35009765625 2113.2099609375 2114.2099609375 2115.1201171875 2116.090087890625 2116.550048828125 2116.81005859375 2117.239990234375 2117.550048828125 2117.85009765625 2118.159912109375 2118.510009765625 2118.89990234375 2119.300048828125 2119.919921875 2120.68994140625 2121.3701171875 2122.409912109375 2123.760009765625 2124.85009765625 2125.5400390625 2126.320068359375 2126.9599609375 2127.320068359375 2127.43994140625 2127.52001953125 2127.510009765625 2127.489990234375 2127.7099609375 2128.239990234375 2128.739990234375 2129.2099609375 2129.60009765625 2129.81005859375 2129.8701171875 2130.110107421875 2130.580078125 2130.89990234375 2131.1298828125 2131.260009765625 2131.219970703125 2131.179931640625 2131.409912109375 2131.77001953125 2132.159912109375 2132.429931640625 2132.669921875 2132.840087890625 2132.889892578125 2133.010009765625 2133.080078125 2133.050048828125 2132.830078125 2132.840087890625 2133.10009765625 2133.2900390625 2133.330078125 2133.3798828125 2133.469970703125 2133.5400390625 2133.550048828125 2133.5400390625 2133.39990234375 2133.3701171875 2133.4599609375 2133.31005859375 2133.14990234375 2133.360107421875 2133.659912109375 2133.75 2133.7900390625 2133.8701171875 2133.97998046875 2133.9599609375 2134.050048828125 2134.159912109375 2134.14990234375 2134.06005859375 2134.169921875 2134.31005859375 2134.5400390625 2134.8701171875 2135.0400390625 2135.159912109375 2135.260009765625 2135.239990234375 2135.139892578125 2135.070068359375 2135.110107421875 2135.14990234375 2135.179931640625 2135.27001953125 2135.300048828125 2135.260009765625 2135.360107421875 2135.489990234375 2135.6201171875 2135.7099609375 2135.7099609375 2135.77001953125 2135.77001953125 2135.719970703125 2135.60009765625 2135.47998046875 2135.570068359375 2135.639892578125 2135.72998046875 2135.7099609375 2135.780029296875 2135.81005859375 2135.8701171875 2135.97998046875 2136.199951171875 2136.39990234375 2136.489990234375 2136.659912109375 2136.840087890625 2137.030029296875 2137.22998046875 2137.3798828125 2137.56005859375 2137.68994140625 2137.800048828125 2137.93994140625 2138.030029296875 2138.110107421875 2138.260009765625 2138.39990234375 2138.5400390625 2138.68994140625 2138.77001953125 2138.72998046875 2138.85009765625 2139.159912109375 2139.360107421875 2139.47998046875 2139.580078125 2139.679931640625 2139.780029296875 2139.8798828125 2139.989990234375 2140.070068359375 2140.219970703125 2140.3701171875 2140.530029296875 2140.610107421875 2140.739990234375 2140.830078125 2140.929931640625 2141.02001953125 2141.06005859375 2141.14990234375 2141.22998046875 2141.2900390625 2141.330078125 2141.330078125 2141.419921875 2141.4599609375 2141.5400390625 2141.679931640625 2141.81005859375 2142 2142.199951171875 2142.31005859375 2142.360107421875
2105.72998046875 2106.10009765625 2106.510009765625 2107.2099609375 2108.030029296875 2108.639892578125 2109.199951171875 2109.909912109375 2110.580078125 2111.2099609375 2111.8701171875 2112.6298828125 2113.820068359375 2115 2115.85009765625 2116.610107421875 2116.7900390625 2116.830078125 2117.169921875 2117.489990234375 2117.719970703125 2117.969970703125 2118.219970703125 2118.52001953125 2118.840087890625 2119.419921875 2120.02001953125 2120.43994140625 2121.52001953125 2123.070068359375 2124.3798828125 2125.239990234375 2126.02001953125 2126.72998046875 2127.25 2127.469970703125 2127.580078125 2127.659912109375 2127.47998046875 2127.4599609375 2127.929931640625 2128.43994140625 2128.8701171875 2129.330078125 2129.7900390625 2130 2130.2099609375 2130.580078125 2130.929931640625 2131.159912109375 2131.320068359375 2131.43994140625 2131.550048828125 2131.77001953125 2132.0400390625 2132.320068359375 2132.60009765625 2132.830078125 2133.090087890625 2133.27001953125 2133.429931640625 2133.5400390625 2133.56005859375 2133.419921875 2133.300048828125 2133.469970703125 2133.639892578125 2133.739990234375 2133.81005859375 2133.8701171875 2133.889892578125 2133.7900390625 2133.68994140625 2133.489990234375 2133.3798828125 2133.39990234375 2133.27001953125 2133.27001953125 2133.60009765625 2133.97998046875 2134.219970703125 2134.340087890625 2134.340087890625 2134.3798828125 2134.429931640625 2134.489990234375 2134.489990234375 2134.489990234375 2134.590087890625 2134.860107421875 2135.030029296875 2135.14990234375 2135.3798828125 2135.56005859375 2135.669921875 2135.77001953125 2135.800048828125 2135.760009765625 2135.639892578125 2135.60009765625 2135.679931640625 2135.7099609375 2135.7900390625 2135.840087890625 2135.77001953125 2135.840087890625 2135.969970703125 2136.080078125 2136.1298828125 2136.139892578125 2136.219970703125 2136.199951171875 2136.050048828125 2135.8798828125 2135.830078125 2135.949951171875 2135.9599609375 2136.030029296875 2136.06005859375 2136.18994140625 2136.280029296875 2136.340087890625 2136.47998046875 2136.760009765625 2136.949951171875 2136.909912109375 2137.050048828125 2137.280029296875 2137.409912109375 2137.60009765625 2137.75 2137.919921875 2138.070068359375 2138.179931640625 2138.330078125 2138.449951171875 2138.550048828125 2138.68994140625 2138.81005859375 2138.929931640625 2139.070068359375 2139.179931640625 2139.169921875 2139.219970703125 2139.39990234375 2139.570068359375 2139.7099609375 2139.919921875 2140.1298828125 2140.239990234375 2140.320068359375 2140.429931640625 2140.52001953125 2140.669921875 2140.840087890625 2141.030029296875 2141.18994140625 2141.31005859375 2141.27001953125 2141.280029296875 2141.5 2141.550048828125 2141.639892578125 2141.739990234375 2141.840087890625 2141.929931640625 2141.949951171875 2142.010009765625 2142 2142.010009765625 2142.1298828125 2142.280029296875 2142.4599609375 2142.659912109375 2142.81005859375 2142.89990234375
2105.4599609375 2105.639892578125 2105.93994140625 2106.6298828125 2107.449951171875 2108.1298828125 2108.860107421875 2109.699951171875 2110.52001953125 2111.199951171875 2111.909912109375 2112.860107421875 2114.050048828125 2115.10009765625 2115.840087890625 2116.47998046875 2116.820068359375 2116.889892578125 2117.030029296875 2117.260009765625 2117.320068359375 2117.489990234375 2117.760009765625 2118.080078125 2118.429931640625 2118.89990234375 2119.360107421875 2119.77001953125 2120.469970703125 2121.7900390625 2123.489990234375 2124.820068359375 2125.679931640625 2126.39990234375 2127.0400390625 2127.39990234375 2127.56005859375 2127.679931640625 2127.570068359375 2127.409912109375 2127.570068359375 2127.89990234375 2128.25 2128.7900390625 2129.570068359375 2130.110107421875 2130.429931640625 2130.64990234375 2130.949951171875 2131.169921875 2131.360107421875 2131.570068359375 2131.7099609375 2131.89990234375 2132.10009765625 2132.340087890625 2132.639892578125 2132.93994140625 2133.280029296875 2133.5 2133.64990234375 2133.780029296875 2133.889892578125 2133.9599609375 2133.760009765625 2133.72998046875 2133.820068359375 2133.93994140625 2134.010009765625 2134.0400390625 2133.989990234375 2133.760009765625 2133.489990234375 2133.320068359375 2133.320068359375 2133.449951171875 2133.5400390625 2133.679931640625 2134.02001953125 2134.409912109375 2134.64990234375 2134.77001953125 2134.760009765625 2134.7900390625 2134.889892578125 2134.89990234375 2134.860107421875 2134.929931640625 2135.18994140625 2135.3798828125 2135.610107421875 2135.72998046875 2135.72998046875 2135.969970703125 2136.139892578125 2136.22998046875 2136.260009765625 2136.27001953125 2136.169921875 2136.030029296875 2136.1201171875 2136.260009765625 2136.320068359375 2136.340087890625 2136.31005859375 2136.409912109375 2136.47998046875 2136.570068359375 2136.60009765625 2136.6201171875 2136.64990234375 2136.550048828125 2136.39990234375 2136.260009765625 2136.2099609375 2136.31005859375 2136.360107421875 2136.489990234375 2136.60009765625 2136.72998046875 2136.77001953125 2136.7900390625 2136.919921875 2137.219970703125 2137.419921875 2137.3798828125 2137.429931640625 2137.6298828125 2137.780029296875 2137.949951171875 2138.1201171875 2138.300048828125 2138.47998046875 2138.6298828125 2138.75 2138.860107421875 2138.989990234375 2139.110107421875 2139.219970703125 2139.35009765625 2139.469970703125 2139.5 2139.550048828125 2139.580078125 2139.6298828125 2139.760009765625 2139.89990234375 2140.18994140625 2140.510009765625 2140.68994140625 2140.860107421875 2140.969970703125 2140.93994140625 2141.050048828125 2141.22998046875 2141.449951171875 2141.64990234375 2141.72998046875 2141.659912109375 2141.679931640625 2141.909912109375 2142.0400390625 2142.14990234375 2142.27001953125 2142.389892578125 2142.4599609375 2142.5 2142.5 2142.469970703125 2142.449951171875 2142.56005859375 2142.719970703125 2142.889892578125 2143.080078125 2143.260009765625 2143.389892578125
2104.830078125 2104.989990234375 2105.39990234375 2105.97998046875 2106.6201171875 2107.320068359375 2108.18994140625 2109.199951171875 2110.179931640625 2110.909912109375 2111.639892578125 2112.820068359375 2113.81005859375 2114.719970703125 2115.449951171875 2115.969970703125 2116.47998046875 2116.7900390625 2116.7900390625 2116.820068359375 2116.840087890625 2117.02001953125 2117.300048828125 2117.570068359375 2118.169921875 2118.639892578125 2118.949951171875 2119.300048828125 2119.639892578125 2120.449951171875 2122.25 2123.989990234375 2124.8701171875 2125.679931640625 2126.52001953125 2127.0400390625 2127.39990234375 2127.590087890625 2127.6298828125 2127.60009765625 2127.3798828125 2127.4599609375 2127.820068359375 2128.510009765625 2129.159912109375 2129.780029296875 2130.300048828125 2130.669921875 2130.889892578125 2131.090087890625 2131.3798828125 2131.699951171875 2131.8701171875 2131.97998046875 2132.080078125 2132.239990234375 2132.550048828125 2132.969970703125 2133.340087890625 2133.5400390625 2133.72998046875 2133.909912109375 2134.10009765625 2134.340087890625 2134.199951171875 2133.97998046875 2133.929931640625 2134.010009765625 2134.030029296875 2133.919921875 2133.699951171875 2133.47998046875 2133.389892578125 2133.389892578125 2133.530029296875 2133.820068359375 2134.10009765625 2134.25 2134.489990234375 2134.840087890625 2135.02001953125 2135.14990234375 2135.199951171875 2135.179931640625 2135.27001953125 2135.300048828125 2135.27001953125 2135.429931640625 2135.860107421875 2135.8701171875 2136 2136.179931640625 2136.219970703125 2136.449951171875 2136.60009765625 2136.699951171875 2136.739990234375 2136.75 2136.639892578125 2136.3701171875 2136.3798828125 2136.7099609375 2136.830078125 2136.840087890625 2136.85009765625 2137.0400390625 2137.010009765625 2137.030029296875 2137.110107421875 2137.110107421875 2137.06005859375 2136.89990234375 2136.800048828125 2136.699951171875 2136.64990234375 2136.739990234375 2136.85009765625 2136.989990234375 2137.080078125 2137.169921875 2137.260009765625 2137.300048828125 2137.3701171875 2137.580078125 2137.7900390625 2137.830078125 2137.85009765625 2138.010009765625 2138.25 2138.409912109375 2138.580078125 2138.75 2138.889892578125 2139.06005859375 2139.159912109375 2139.239990234375 2139.35009765625 2139.469970703125 2139.610107421875 2139.780029296875 2139.800048828125 2139.6201171875 2139.760009765625 2140.0400390625 2140.14990234375 2140.300048828125 2140.47998046875 2140.679931640625 2141 2141.1201171875 2141.2900390625 2141.3701171875 2141.300048828125 2141.3798828125 2141.6298828125 2141.919921875 2142.050048828125 2142.169921875 2142.2900390625 2142.389892578125 2142.43994140625 2142.52001953125 2142.64990234375 2142.7900390625 2142.919921875 2142.969970703125 2143.02001953125 2143.0400390625 2143.030029296875 2142.93994140625 2142.989990234375 2143.18994140625 2143.360107421875 2143.510009765625 2143.669921875 2143.81005859375
2104.4599609375 2104.659912109375 2105.1298828125 2105.719970703125 2106.300048828125 2106.93994140625 2107.659912109375 2108.550048828125 2109.56005859375 2110.47998046875 2111.25 2112.360107421875 2113.35009765625 2114.169921875 2114.97998046875 2115.610107421875 2115.93994140625 2116.199951171875 2116.27001953125 2116.31005859375 2116.4599609375 2116.679931640625 2116.97998046875 2117.300048828125 2117.780029296875 2118.27001953125 2118.590087890625 2118.949951171875 2119.2900390625 2119.699951171875 2120.97998046875 2123.090087890625 2124.199951171875 2125.010009765625 2126.010009765625 2126.889892578125 2127.3701171875 2127.570068359375 2127.64990234375 2127.699951171875 2127.530029296875 2127.489990234375 2127.7099609375 2128.179931640625 2128.68994140625 2129.260009765625 2129.889892578125 2130.489990234375 2130.72998046875 2130.820068359375 2131.14990234375 2131.6298828125 2131.929931640625 2131.93994140625 2131.949951171875 2132.14990234375 2132.47998046875 2132.969970703125 2133.3798828125 2133.60009765625 2133.85009765625 2134.0400390625 2134.179931640625 2134.35009765625 2134.27001953125 2134.010009765625 2133.81005859375 2133.800048828125 2133.860107421875 2133.7900390625 2133.6201171875 2133.7099609375 2133.85009765625 2133.949951171875 2134.10009765625 2134.340087890625 2134.60009765625 2134.739990234375 2134.919921875 2135.25 2135.43994140625 2135.550048828125 2135.610107421875 2135.6298828125 2135.7099609375 2135.85009765625 2135.93994140625 2136.179931640625 2136.510009765625 2136.3798828125 2136.280029296875 2136.510009765625 2136.760009765625 2136.89990234375 2137 2137.10009765625 2137.14990234375 2137.1298828125 2137.030029296875 2136.860107421875 2136.860107421875 2137.030029296875 2137.280029296875 2137.419921875 2137.3701171875 2137.409912109375 2137.330078125 2137.39990234375 2137.6201171875 2137.659912109375 2137.580078125 2137.409912109375 2137.260009765625 2137.14990234375 2137.1201171875 2137.2099609375 2137.330078125 2137.429931640625 2137.5 2137.60009765625 2137.75 2137.830078125 2137.919921875 2138.070068359375 2138.25 2138.3701171875 2138.409912109375 2138.510009765625 2138.699951171875 2138.840087890625 2138.97998046875 2139.159912109375 2139.2900390625 2139.320068359375 2139.280029296875 2139.3701171875 2139.510009765625 2139.7099609375 2139.889892578125 2140.1201171875 2140.1298828125 2140.1201171875 2140.280029296875 2140.5400390625 2140.780029296875 2140.909912109375 2141.139892578125 2141.31005859375 2141.4599609375 2141.530029296875 2141.590087890625 2141.5400390625 2141.64990234375 2141.760009765625 2142.02001953125 2142.320068359375 2142.449951171875 2142.639892578125 2142.860107421875 2142.989990234375 2143.0400390625 2143.1298828125 2143.22998046875 2143.360107421875 2143.449951171875 2143.4599609375 2143.47998046875 2143.5400390625 2143.610107421875 2143.550048828125 2143.52001953125 2143.7099609375 2143.89990234375 2144.010009765625 2144.179931640625 2144.31005859375
2104.360107421875 2104.56005859375 2104.89990234375 2105.419921875 2106.010009765625 2106.679931640625 2107.2900390625 2107.89990234375 2108.739990234375 2109.929931640625 2110.919921875 2111.81005859375 2112.7900390625 2113.64990234375 2114.3701171875 2114.89990234375 2115.10009765625 2115.510009765625 2116.02001953125 2116.27001953125 2116.3701171875 2116.52001953125 2116.7900390625 2117.10009765625 2117.43994140625 2117.8798828125 2118.2900390625 2118.679931640625 2119.1298828125 2119.530029296875 2120.389892578125 2122.39990234375 2123.889892578125 2124.7900390625 2125.72998046875 2126.699951171875 2127.25 2127.52001953125 2127.56005859375 2127.550048828125 2127.6201171875 2127.610107421875 2127.739990234375 2128.050048828125 2128.469970703125 2128.949951171875 2129.570068359375 2130.280029296875 2130.7099609375 2130.780029296875 2130.89990234375 2131.320068359375 2131.760009765625 2131.89990234375 2132 2132.25 2132.52001953125 2132.93994140625 2133.389892578125 2133.659912109375 2133.909912109375 2133.93994140625 2133.909912109375 2134.010009765625 2134.169921875 2134.14990234375 2134 2134.010009765625 2134.2099609375 2134.280029296875 2134.159912109375 2134.22998046875 2134.429931640625 2134.570068359375 2134.72998046875 2134.89990234375 2135.1298828125 2135.31005859375 2135.5 2135.75 2135.89990234375 2135.969970703125 2136.06005859375 2136.260009765625 2136.320068359375 2136.3798828125 2136.64990234375 2136.919921875 2136.929931640625 2136.7900390625 2136.72998046875 2137.06005859375 2137.3701171875 2137.409912109375 2137.409912109375 2137.419921875 2137.47998046875 2137.43994140625 2137.3701171875 2137.429931640625 2137.47998046875 2137.3701171875 2137.510009765625 2137.75 2137.72998046875 2137.659912109375 2137.719970703125 2137.860107421875 2137.97998046875 2138.010009765625 2137.989990234375 2137.860107421875 2137.669921875 2137.639892578125 2137.669921875 2137.7900390625 2137.889892578125 2137.9599609375 2138.030029296875 2138.14990234375 2138.280029296875 2138.35009765625 2138.449951171875 2138.550048828125 2138.659912109375 2138.820068359375 2138.909912109375 2139 2139.139892578125 2139.239990234375 2139.3701171875 2139.56005859375 2139.669921875 2139.659912109375 2139.580078125 2139.699951171875 2139.820068359375 2140.010009765625 2140.2099609375 2140.52001953125 2140.719970703125 2141 2141.06005859375 2141.1298828125 2141.389892578125 2141.56005859375 2141.760009765625 2141.909912109375 2141.949951171875 2142.02001953125 2142.110107421875 2142.219970703125 2142.389892578125 2142.469970703125 2142.659912109375 2142.81005859375 2142.860107421875 2143.0400390625 2143.260009765625 2143.419921875 2143.5400390625 2143.68994140625 2143.760009765625 2143.840087890625 2143.949951171875 2144.010009765625 2144.010009765625 2144.0400390625 2144.159912109375 2144.219970703125 2144.159912109375 2144.22998046875 2144.409912109375 2144.56005859375 2144.719970703125 2144.830078125
2104.18994140625 2104.47998046875 2104.7900390625 2105.260009765625 2105.800048828125 2106.39990234375 2106.969970703125 2107.5400390625 2108.31005859375 2109.389892578125 2110.39990234375 2111.22998046875 2112.14990234375 2112.949951171875 2113.3701171875 2113.679931640625 2114.389892578125 2115.330078125 2116.06005859375 2116.320068359375 2116.340087890625 2116.360107421875 2116.56005859375 2116.830078125 2117.110107421875 2117.52001953125 2117.969970703125 2118.429931640625 2118.909912109375 2119.389892578125 2119.989990234375 2121.43994140625 2123.169921875 2124.39990234375 2125.409912109375 2126.239990234375 2126.679931640625 2126.949951171875 2127.080078125 2127.25 2127.570068359375 2127.570068359375 2127.6201171875 2127.909912109375 2128.3701171875 2128.7099609375 2129.18994140625 2129.89990234375 2130.6298828125 2130.909912109375 2130.8701171875 2131.02001953125 2131.429931640625 2131.800048828125 2132.110107421875 2132.3701171875 2132.56005859375 2132.830078125 2133.31005859375 2133.659912109375 2133.7900390625 2133.6298828125 2133.60009765625 2133.919921875 2134.3798828125 2134.530029296875 2134.52001953125 2134.610107421875 2134.699951171875 2134.800048828125 2134.800048828125 2134.8701171875 2135 2135.1201171875 2135.300048828125 2135.43994140625 2135.6298828125 2135.860107421875 2136.1201171875 2136.31005859375 2136.39990234375 2136.469970703125 2136.6201171875 2136.929931640625 2137 2136.85009765625 2137.050048828125 2137.340087890625 2137.25 2137.300048828125 2137.510009765625 2137.800048828125 2137.89990234375 2137.860107421875 2137.830078125 2137.7900390625 2137.820068359375 2137.820068359375 2137.669921875 2137.7900390625 2137.949951171875 2137.820068359375 2137.7900390625 2138.010009765625 2138.110107421875 2138.169921875 2138.360107421875 2138.3701171875 2138.169921875 2138.1201171875 2138.1298828125 2138.06005859375 2138 2138.1201171875 2138.199951171875 2138.340087890625 2138.419921875 2138.510009765625 2138.6201171875 2138.719970703125 2138.800048828125 2138.840087890625 2138.889892578125 2138.969970703125 2139.06005859375 2139.199951171875 2139.300048828125 2139.3798828125 2139.550048828125 2139.669921875 2139.81005859375 2140.02001953125 2140.1298828125 2140.199951171875 2140.219970703125 2140.320068359375 2140.360107421875 2140.4599609375 2140.6201171875 2140.89990234375 2141.18994140625 2141.550048828125 2141.669921875 2141.77001953125 2142 2142.139892578125 2142.260009765625 2142.43994140625 2142.56005859375 2142.6201171875 2142.75 2142.93994140625 2143.1298828125 2143.179931640625 2143.27001953125 2143.35009765625 2143.39990234375 2143.47998046875 2143.659912109375 2143.830078125 2143.989990234375 2144.159912109375 2144.18994140625 2144.260009765625 2144.449951171875 2144.590087890625 2144.610107421875 2144.60009765625 2144.669921875 2144.780029296875 2144.760009765625 2144.75 2144.89990234375 2145.080078125 2145.239990234375 2145.3798828125
2103.739990234375 2104.2099609375 2104.68994140625 2105.300048828125 2105.75 2106.139892578125 2106.590087890625 2107.169921875 2107.81005859375 2108.570068359375 2109.530029296875 2110.56005859375 2111.260009765625 2111.7900390625 2112.280029296875 2113.14990234375 2114.52001953125 2115.610107421875 2116.14990234375 2116.25 2116.25 2116.22998046875 2116.39990234375 2116.760009765625 2117.02001953125 2117.35009765625 2117.699951171875 2118.179931640625 2118.68994140625 2119.169921875 2119.699951171875 2120.550048828125 2122.14990234375 2123.840087890625 2125.1298828125 2125.889892578125 2126.010009765625 2126.090087890625 2126.409912109375 2127.050048828125 2127.580078125 2127.68994140625 2127.639892578125 2127.81005859375 2128.10009765625 2128.340087890625 2128.81005859375 2129.5 2130.320068359375 2130.77001953125 2130.81005859375 2130.89990234375 2131.1201171875 2131.510009765625 2131.81005859375 2131.989990234375 2132.2900390625 2132.5400390625 2133.06005859375 2133.550048828125 2133.659912109375 2133.489990234375 2133.6201171875 2134.14990234375 2134.64990234375 2134.77001953125 2134.840087890625 2135.06005859375 2135.199951171875 2135.3701171875 2135.43994140625 2135.489990234375 2135.610107421875 2135.719970703125 2135.840087890625 2135.969970703125 2136.1298828125 2136.3798828125 2136.679931640625 2136.8701171875 2136.929931640625 2137.0400390625 2137.239990234375 2137.510009765625 2137.639892578125 2137.409912109375 2137.429931640625 2137.68994140625 2137.72998046875 2137.93994140625 2138.22998046875 2138.35009765625 2138.239990234375 2138.199951171875 2138.2900390625 2138.340087890625 2138.300048828125 2138.35009765625 2138.070068359375 2138.06005859375 2138.25 2138.280029296875 2138.25 2138.4599609375 2138.68994140625 2138.949951171875 2139.070068359375 2138.860107421875 2138.52001953125 2138.340087890625 2138.35009765625 2138.340087890625 2138.43994140625 2138.669921875 2138.7900390625 2138.8701171875 2138.85009765625 2138.919921875 2139.090087890625 2139.219970703125 2139.340087890625 2139.389892578125 2139.35009765625 2139.3798828125 2139.489990234375 2139.6201171875 2139.75 2139.8701171875 2139.989990234375 2140.010009765625 2140.1201171875 2140.39990234375 2140.639892578125 2140.699951171875 2140.75 2140.81005859375 2140.800048828125 2140.89990234375 2141.080078125 2141.280029296875 2141.419921875 2141.89990234375 2142.18994140625 2142.419921875 2142.570068359375 2142.64990234375 2142.72998046875 2142.919921875 2143.070068359375 2143.14990234375 2143.2900390625 2143.389892578125 2143.56005859375 2143.6201171875 2143.679931640625 2143.7900390625 2144.02001953125 2144.06005859375 2144.18994140625 2144.35009765625 2144.4599609375 2144.550048828125 2144.56005859375 2144.68994140625 2144.93994140625 2145.080078125 2145.169921875 2145.18994140625 2145.18994140625 2145.239990234375 2145.25 2145.280029296875 2145.419921875 2145.6298828125 2145.7900390625 2145.919921875
2102.889892578125 2103.739990234375 2104.47998046875 2105.050048828125 2105.3701171875 2105.679931640625 2106.139892578125 2106.669921875 2107.25 2108.010009765625 2108.699951171875 2109.280029296875 2109.85009765625 2110.570068359375 2111.7900390625 2113.159912109375 2114.449951171875 2115.389892578125 2116.110107421875 2116.330078125 2116.25 2116.239990234375 2116.449951171875 2116.760009765625 2117 2117.18994140625 2117.43994140625 2117.860107421875 2118.3798828125 2118.8798828125 2119.43994140625 2120.139892578125 2121.1201171875 2122.719970703125 2124.2900390625 2125.31005859375 2125.489990234375 2125.580078125 2126.02001953125 2126.659912109375 2127.280029296875 2127.6201171875 2127.679931640625 2127.780029296875 2127.860107421875 2128 2128.5 2129.070068359375 2129.699951171875 2130.090087890625 2130.320068359375 2130.570068359375 2130.909912109375 2131.330078125 2131.6298828125 2131.8798828125 2132.159912109375 2132.5400390625 2133.080078125 2133.639892578125 2133.989990234375 2133.989990234375 2134.10009765625 2134.47998046875 2134.93994140625 2135.260009765625 2135.360107421875 2135.469970703125 2135.56005859375 2135.780029296875 2135.9599609375 2136.06005859375 2136.14990234375 2136.260009765625 2136.39990234375 2136.530029296875 2136.659912109375 2136.929931640625 2137.199951171875 2137.360107421875 2137.43994140625 2137.570068359375 2137.81005859375 2137.97998046875 2138.02001953125 2137.85009765625 2137.7900390625 2138.030029296875 2138.2900390625 2138.510009765625 2138.77001953125 2138.93994140625 2138.860107421875 2138.820068359375 2138.8798828125 2138.81005859375 2138.739990234375 2138.889892578125 2138.6298828125 2138.590087890625 2138.739990234375 2138.760009765625 2138.699951171875 2138.889892578125 2139.239990234375 2139.419921875 2139.43994140625 2139.260009765625 2139.010009765625 2138.840087890625 2138.89990234375 2138.989990234375 2139.06005859375 2139.239990234375 2139.320068359375 2139.360107421875 2139.35009765625 2139.39990234375 2139.5400390625 2139.6201171875 2139.580078125 2139.590087890625 2139.639892578125 2139.77001953125 2139.889892578125 2139.949951171875 2140.239990234375 2140.52001953125 2140.590087890625 2140.56005859375 2140.639892578125 2140.81005859375 2141.030029296875 2141.10009765625 2141.14990234375 2141.320068359375 2141.3701171875 2141.530029296875 2141.85009765625 2142.070068359375 2142.139892578125 2142.419921875 2142.669921875 2142.89990234375 2143.070068359375 2143.22998046875 2143.35009765625 2143.47998046875 2143.56005859375 2143.669921875 2143.81005859375 2143.93994140625 2144.10009765625 2144.2099609375 2144.280029296875 2144.35009765625 2144.530029296875 2144.659912109375 2144.7900390625 2144.889892578125 2145 2145.18994140625 2145.2900390625 2145.320068359375 2145.43994140625 2145.6201171875 2145.75 2145.830078125 2145.830078125 2145.72998046875 2145.719970703125 2145.739990234375 2145.8701171875 2146.1201171875 2146.320068359375 2146.429931640625
2102.340087890625 2103.330078125 2104.14990234375 2104.7099609375 2105.030029296875 2105.31005859375 2105.760009765625 2106.300048828125 2106.929931640625 2107.60009765625 2107.97998046875 2108.219970703125 2108.72998046875 2109.949951171875 2111.659912109375 2113.02001953125 2114.14990234375 2115.050048828125 2115.830078125 2116.260009765625 2116.300048828125 2116.2900390625 2116.3701171875 2116.580078125 2116.840087890625 2116.8701171875 2117.1201171875 2117.56005859375 2118.0400390625 2118.590087890625 2119.1298828125 2119.760009765625 2120.489990234375 2121.6298828125 2123.080078125 2124.409912109375 2124.89990234375 2125.090087890625 2125.449951171875 2125.93994140625 2126.389892578125 2126.8798828125 2127.27001953125 2127.60009765625 2127.72998046875 2127.7900390625 2128.110107421875 2128.469970703125 2128.840087890625 2129.159912109375 2129.639892578125 2130.239990234375 2130.929931640625 2131.530029296875 2131.969970703125 2132.31005859375 2132.659912109375 2133.030029296875 2133.43994140625 2133.909912109375 2134.3701171875 2134.530029296875 2134.669921875 2134.89990234375 2135.300048828125 2135.72998046875 2135.860107421875 2135.89990234375 2135.8701171875 2136.010009765625 2136.27001953125 2136.52001953125 2136.669921875 2136.830078125 2136.97998046875 2137.110107421875 2137.239990234375 2137.43994140625 2137.6298828125 2137.7900390625 2137.989990234375 2138.1298828125 2138.260009765625 2138.360107421875 2138.39990234375 2138.3701171875 2138.280029296875 2138.3798828125 2138.72998046875 2139.010009765625 2139.260009765625 2139.429931640625 2139.419921875 2139.3701171875 2139.27001953125 2138.97998046875 2138.919921875 2139.239990234375 2139.14990234375 2139.14990234375 2139.2900390625 2139.22998046875 2139.169921875 2139.3701171875 2139.639892578125 2139.739990234375 2139.820068359375 2139.7099609375 2139.510009765625 2139.5 2139.530029296875 2139.550048828125 2139.610107421875 2139.800048828125 2139.860107421875 2139.909912109375 2139.9599609375 2139.929931640625 2139.929931640625 2139.93994140625 2139.840087890625 2139.919921875 2140.1201171875 2140.27001953125 2140.3798828125 2140.5 2140.89990234375 2141.179931640625 2141.159912109375 2141.2099609375 2141.409912109375 2141.550048828125 2141.590087890625 2141.639892578125 2141.760009765625 2141.969970703125 2142.1298828125 2142.389892578125 2142.75 2142.97998046875 2143.080078125 2143.169921875 2143.18994140625 2143.300048828125 2143.5400390625 2143.7900390625 2143.93994140625 2144.0400390625 2144.10009765625 2144.219970703125 2144.340087890625 2144.47998046875 2144.6201171875 2144.760009765625 2144.85009765625 2144.929931640625 2145.18994140625 2145.43994140625 2145.590087890625 2145.6298828125 2145.830078125 2146.1201171875 2146.2099609375 2146.110107421875 2146.070068359375 2146.199951171875 2146.39990234375 2146.570068359375 2146.530029296875 2146.320068359375 2146.300048828125 2146.260009765625 2146.280029296875 2146.530029296875 2146.780029296875 2146.93994140625
2102.030029296875 2102.89990234375 2103.610107421875 2104.199951171875 2104.669921875 2105.02001953125 2105.449951171875 2105.969970703125 2106.5400390625 2107.0400390625 2107.300048828125 2107.530029296875 2108.330078125 2109.909912109375 2111.550048828125 2112.800048828125 2113.909912109375 2114.6298828125 2115.18994140625 2115.669921875 2115.97998046875 2116.179931640625 2116.27001953125 2116.35009765625 2116.60009765625 2116.590087890625 2116.85009765625 2117.300048828125 2117.77001953125 2118.330078125 2118.8798828125 2119.43994140625 2120.159912109375 2120.72998046875 2121.5400390625 2122.929931640625 2124.06005859375 2124.47998046875 2124.760009765625 2125.199951171875 2125.5400390625 2126.06005859375 2126.7099609375 2127.22998046875 2127.5 2127.56005859375 2127.679931640625 2127.889892578125 2128.199951171875 2128.679931640625 2129.52001953125 2130.31005859375 2130.969970703125 2131.590087890625 2132.18994140625 2132.669921875 2133.050048828125 2133.39990234375 2133.719970703125 2134.050048828125 2134.47998046875 2134.780029296875 2135 2135.22998046875 2135.6201171875 2136.080078125 2136.22998046875 2136.27001953125 2136.280029296875 2136.3798828125 2136.56005859375 2136.800048828125 2137 2137.260009765625 2137.47998046875 2137.679931640625 2137.8798828125 2138.02001953125 2138.090087890625 2138.199951171875 2138.429931640625 2138.6298828125 2138.739990234375 2138.780029296875 2138.77001953125 2138.85009765625 2138.760009765625 2138.7099609375 2138.9599609375 2139.35009765625 2139.639892578125 2139.739990234375 2139.739990234375 2139.719970703125 2139.659912109375 2139.340087890625 2139.239990234375 2139.510009765625 2139.530029296875 2139.639892578125 2139.8701171875 2139.85009765625 2139.77001953125 2139.909912109375 2140.010009765625 2140.030029296875 2140.14990234375 2140.10009765625 2140.010009765625 2140.070068359375 2140.110107421875 2140.139892578125 2140.179931640625 2140.35009765625 2140.389892578125 2140.409912109375 2140.47998046875 2140.4599609375 2140.419921875 2140.43994140625 2140.449951171875 2140.6201171875 2140.7900390625 2140.8701171875 2140.97998046875 2141.1298828125 2141.419921875 2141.60009765625 2141.699951171875 2141.93994140625 2142.22998046875 2142.389892578125 2142.2900390625 2142.2099609375 2142.320068359375 2142.530029296875 2142.7099609375 2142.85009765625 2143.25 2143.6298828125 2143.840087890625 2143.909912109375 2143.820068359375 2143.830078125 2144.06005859375 2144.31005859375 2144.469970703125 2144.64990234375 2144.77001953125 2144.860107421875 2144.89990234375 2145.050048828125 2145.25 2145.419921875 2145.580078125 2145.840087890625 2146.280029296875 2146.489990234375 2146.510009765625 2146.489990234375 2146.739990234375 2147.080078125 2147.159912109375 2147.030029296875 2146.909912109375 2146.8798828125 2147.030029296875 2147.2099609375 2147.080078125 2146.89990234375 2147 2146.97998046875 2146.929931640625 2147.090087890625 2147.320068359375 2147.47998046875
2101.489990234375 2102.300048828125 2103 2103.590087890625 2104.139892578125 2104.6298828125 2105.070068359375 2105.570068359375 2105.840087890625 2106.1201171875 2106.5 2106.97998046875 2107.8798828125 2109.360107421875 2110.820068359375 2112.090087890625 2113.239990234375 2113.97998046875 2114.47998046875 2114.969970703125 2115.31005859375 2115.77001953125 2116.110107421875 2116.169921875 2116.260009765625 2116.5 2116.820068359375 2117.139892578125 2117.56005859375 2118.1298828125 2118.6298828125 2119.169921875 2119.610107421875 2119.9599609375 2120.35009765625 2121.14990234375 2123.010009765625 2123.75 2124.1298828125 2124.739990234375 2124.989990234375 2125.489990234375 2126.14990234375 2126.570068359375 2126.75 2126.919921875 2127.1201171875 2127.340087890625 2127.75 2128.56005859375 2129.550048828125 2130.2099609375 2130.8798828125 2131.56005859375 2132.239990234375 2132.739990234375 2133.1298828125 2133.5 2133.7900390625 2134.030029296875 2134.5 2134.89990234375 2135.18994140625 2135.449951171875 2135.800048828125 2136.25 2136.469970703125 2136.590087890625 2136.739990234375 2136.949951171875 2137.06005859375 2137.14990234375 2137.239990234375 2137.510009765625 2137.820068359375 2138.090087890625 2138.360107421875 2138.52001953125 2138.610107421875 2138.68994140625 2138.81005859375 2139.050048828125 2139.18994140625 2139.199951171875 2139.199951171875 2139.300048828125 2139.179931640625 2139.090087890625 2139.2900390625 2139.56005859375 2139.8701171875 2140.0400390625 2140.02001953125 2139.93994140625 2139.929931640625 2139.7900390625 2139.77001953125 2139.919921875 2139.949951171875 2140.090087890625 2140.31005859375 2140.330078125 2140.27001953125 2140.3701171875 2140.4599609375 2140.449951171875 2140.5400390625 2140.570068359375 2140.639892578125 2140.590087890625 2140.590087890625 2140.64990234375 2140.659912109375 2140.7900390625 2140.8701171875 2140.840087890625 2140.89990234375 2140.989990234375 2141.030029296875 2141.030029296875 2141.110107421875 2141.330078125 2141.5400390625 2141.6298828125 2141.7099609375 2141.7900390625 2141.949951171875 2142.070068359375 2142.3701171875 2142.739990234375 2142.949951171875 2142.97998046875 2142.85009765625 2142.830078125 2142.8798828125 2143.050048828125 2143.22998046875 2143.3798828125 2143.7900390625 2144.22998046875 2144.52001953125 2144.590087890625 2144.489990234375 2144.43994140625 2144.590087890625 2144.800048828125 2145.010009765625 2145.260009765625 2145.510009765625 2145.6298828125 2145.6201171875 2145.760009765625 2145.989990234375 2146.139892578125 2146.3798828125 2146.760009765625 2147.300048828125 2147.4599609375 2147.43994140625 2147.43994140625 2147.56005859375 2147.820068359375 2147.949951171875 2147.8701171875 2147.77001953125 2147.590087890625 2147.570068359375 2147.6298828125 2147.449951171875 2147.429931640625 2147.659912109375 2147.72998046875 2147.840087890625 2147.949951171875 2148.090087890625 2148.169921875
2101.010009765625 2101.7099609375 2102.429931640625 2103.050048828125 2103.590087890625 2104.080078125 2104.52001953125 2104.969970703125 2105.320068359375 2105.659912109375 2106.030029296875 2106.610107421875 2107.639892578125 2108.949951171875 2110.010009765625 2110.840087890625 2112.010009765625 2112.8701171875 2113.429931640625 2114.31005859375 2114.77001953125 2115.27001953125 2115.7099609375 2115.969970703125 2116.179931640625 2116.489990234375 2116.820068359375 2117.050048828125 2117.419921875 2117.889892578125 2118.31005859375 2118.72998046875 2119.090087890625 2119.5 2120 2120.469970703125 2121.530029296875 2122.419921875 2123.260009765625 2124.050048828125 2124.510009765625 2124.989990234375 2125.4599609375 2125.719970703125 2125.89990234375 2126.25 2126.659912109375 2127.06005859375 2127.510009765625 2128.409912109375 2129.5 2130.27001953125 2130.919921875 2131.489990234375 2132.030029296875 2132.5 2132.9599609375 2133.389892578125 2133.739990234375 2133.989990234375 2134.47998046875 2134.989990234375 2135.3701171875 2135.669921875 2135.989990234375 2136.389892578125 2136.679931640625 2136.889892578125 2137.14990234375 2137.429931640625 2137.570068359375 2137.6298828125 2137.72998046875 2137.949951171875 2138.2099609375 2138.409912109375 2138.739990234375 2138.8798828125 2138.949951171875 2139.159912109375 2139.300048828125 2139.47998046875 2139.590087890625 2139.659912109375 2139.760009765625 2139.840087890625 2139.64990234375 2139.6298828125 2139.820068359375 2139.7900390625 2139.840087890625 2140.139892578125 2140.239990234375 2140.10009765625 2140.22998046875 2140.300048828125 2140.31005859375 2140.409912109375 2140.47998046875 2140.60009765625 2140.72998046875 2140.75 2140.719970703125 2140.81005859375 2140.919921875 2140.93994140625 2140.97998046875 2141.030029296875 2141.110107421875 2141.159912109375 2141.18994140625 2141.18994140625 2141.14990234375 2141.2099609375 2141.360107421875 2141.39990234375 2141.4599609375 2141.590087890625 2141.639892578125 2141.679931640625 2141.820068359375 2142.10009765625 2142.18994140625 2142.199951171875 2142.219970703125 2142.409912109375 2142.56005859375 2142.52001953125 2142.860107421875 2143.18994140625 2143.449951171875 2143.489990234375 2143.56005859375 2143.7900390625 2143.889892578125 2143.909912109375 2143.81005859375 2143.949951171875 2144.3701171875 2144.830078125 2145.179931640625 2145.31005859375 2145.2099609375 2145.06005859375 2145.1298828125 2145.300048828125 2145.5400390625 2145.81005859375 2146.050048828125 2146.2099609375 2146.260009765625 2146.39990234375 2146.550048828125 2146.679931640625 2146.89990234375 2147.159912109375 2147.530029296875 2147.840087890625 2148.02001953125 2148.239990234375 2148.389892578125 2148.530029296875 2148.570068359375 2148.489990234375 2148.409912109375 2148.35009765625 2148.25 2148.110107421875 2147.8798828125 2147.949951171875 2148.199951171875 2148.280029296875 2148.429931640625 2148.6201171875 2148.780029296875 2148.860107421875
2100.530029296875 2101.14990234375 2101.840087890625 2102.5400390625 2103.10009765625 2103.56005859375 2103.909912109375 2104.31005859375 2104.820068359375 2105.280029296875 2105.56005859375 2106.090087890625 2107.409912109375 2108.72998046875 2109.3798828125 2109.699951171875 2110.419921875 2111.2099609375 2111.919921875 2113.3798828125 2114.110107421875 2114.610107421875 2115.02001953125 2115.429931640625 2115.909912109375 2116.31005859375 2116.56005859375 2116.780029296875 2117.139892578125 2117.590087890625 2118.02001953125 2118.409912109375 2118.719970703125 2119.1298828125 2119.639892578125 2120.10009765625 2120.580078125 2121.389892578125 2122.419921875 2123.300048828125 2123.93994140625 2124.330078125 2124.68994140625 2125.050048828125 2125.3798828125 2125.8701171875 2126.389892578125 2126.919921875 2127.60009765625 2128.56005859375 2129.610107421875 2130.3798828125 2130.989990234375 2131.43994140625 2131.860107421875 2132.35009765625 2132.840087890625 2133.35009765625 2133.77001953125 2134.030029296875 2134.5 2135.080078125 2135.52001953125 2135.830078125 2136.199951171875 2136.60009765625 2136.929931640625 2137.219970703125 2137.5400390625 2137.830078125 2137.97998046875 2138.080078125 2138.239990234375 2138.469970703125 2138.669921875 2138.760009765625 2138.97998046875 2139.18994140625 2139.320068359375 2139.530029296875 2139.699951171875 2139.8701171875 2139.97998046875 2140.1201171875 2140.31005859375 2140.340087890625 2140.14990234375 2140.1298828125 2140.2900390625 2140.25 2140.10009765625 2140.18994140625 2140.260009765625 2140.1201171875 2140.419921875 2140.719970703125 2140.81005859375 2140.89990234375 2141.030029296875 2141.10009765625 2141.14990234375 2141.239990234375 2141.280029296875 2141.300048828125 2141.35009765625 2141.409912109375 2141.43994140625 2141.489990234375 2141.56005859375 2141.669921875 2141.780029296875 2141.7900390625 2141.659912109375 2141.679931640625 2141.860107421875 2141.969970703125 2142.0400390625 2142.14990234375 2142.25 2142.360107421875 2142.47998046875 2142.550048828125 2142.469970703125 2142.530029296875 2142.639892578125 2143.02001953125 2143.340087890625 2143.3798828125 2143.639892578125 2143.830078125 2143.969970703125 2143.969970703125 2144.10009765625 2144.449951171875 2144.60009765625 2144.580078125 2144.389892578125 2144.56005859375 2144.9599609375 2145.3701171875 2145.7099609375 2145.889892578125 2145.780029296875 2145.6298828125 2145.719970703125 2145.8701171875 2146.070068359375 2146.320068359375 2146.580078125 2146.7099609375 2146.669921875 2146.669921875 2146.760009765625 2146.8798828125 2147.10009765625 2147.360107421875 2147.659912109375 2147.9599609375 2148.219970703125 2148.510009765625 2148.75 2148.889892578125 2148.9599609375 2148.93994140625 2148.929931640625 2148.889892578125 2148.739990234375 2148.429931640625 2148.169921875 2148.300048828125 2148.590087890625 2148.72998046875 2148.8798828125 2149.070068359375 2149.18994140625 2149.27001953125
2100 2100.7099609375 2101.330078125 2101.93994140625 2102.610107421875 2103.139892578125 2103.429931640625 2103.760009765625 2104.39990234375 2104.989990234375 2105.159912109375 2105.340087890625 2106.239990234375 2107.409912109375 2108.159912109375 2108.68994140625 2109.419921875 2110.22998046875 2111.139892578125 2112.610107421875 2113.27001953125 2113.7900390625 2114.25 2114.72998046875 2115.43994140625 2115.97998046875 2116.2099609375 2116.39990234375 2116.739990234375 2117.2900390625 2117.760009765625 2118.030029296875 2118.320068359375 2118.800048828125 2119.31005859375 2119.7900390625 2120.300048828125 2120.989990234375 2121.840087890625 2122.570068359375 2123.239990234375 2123.659912109375 2124.179931640625 2124.75 2125.280029296875 2125.840087890625 2126.340087890625 2126.93994140625 2127.840087890625 2128.72998046875 2129.52001953125 2130.179931640625 2130.889892578125 2131.47998046875 2131.989990234375 2132.489990234375 2132.89990234375 2133.389892578125 2133.8701171875 2134.14990234375 2134.550048828125 2135.10009765625 2135.570068359375 2135.93994140625 2136.409912109375 2136.85009765625 2137.25 2137.6298828125 2138.030029296875 2138.280029296875 2138.419921875 2138.580078125 2138.7099609375 2138.909912109375 2139.139892578125 2139.22998046875 2139.260009765625 2139.39990234375 2139.590087890625 2139.760009765625 2139.919921875 2140.090087890625 2140.260009765625 2140.4599609375 2140.659912109375 2140.679931640625 2140.530029296875 2140.43994140625 2140.56005859375 2140.699951171875 2140.6298828125 2140.56005859375 2140.530029296875 2140.510009765625 2140.820068359375 2141.1201171875 2141.260009765625 2141.330078125 2141.449951171875 2141.489990234375 2141.56005859375 2141.679931640625 2141.75 2141.75 2141.760009765625 2141.8701171875 2141.909912109375 2141.9599609375 2142.0400390625 2142.090087890625 2142.2099609375 2142.31005859375 2142.260009765625 2142.340087890625 2142.510009765625 2142.570068359375 2142.639892578125 2142.719970703125 2142.85009765625 2142.989990234375 2143.10009765625 2143.179931640625 2143.260009765625 2143.530029296875 2143.68994140625 2143.989990234375 2144.219970703125 2144.31005859375 2144.419921875 2144.43994140625 2144.43994140625 2144.409912109375 2144.4599609375 2144.699951171875 2144.909912109375 2145.110107421875 2145.27001953125 2145.570068359375 2145.7900390625 2145.93994140625 2146.1298828125 2146.2900390625 2146.139892578125 2146.110107421875 2146.320068359375 2146.52001953125 2146.7099609375 2146.89990234375 2147.1298828125 2147.2099609375 2147.070068359375 2146.919921875 2146.929931640625 2147.080078125 2147.3798828125 2147.7099609375 2147.969970703125 2148.179931640625 2148.3701171875 2148.590087890625 2148.800048828125 2148.97998046875 2149.139892578125 2149.22998046875 2149.25 2149.179931640625 2148.929931640625 2148.4599609375 2148.2099609375 2148.39990234375 2148.7099609375 2148.840087890625 2148.89990234375 2148.989990234375 2149 2149.030029296875
2099.5 2100.340087890625 2100.909912109375 2101.2099609375 2102.06005859375 2102.75 2103.1201171875 2103.340087890625 2104.110107421875 2104.840087890625 2105.02001953125 2105.02001953125 2105.2900390625 2105.8798828125 2106.72998046875 2107.739990234375 2108.6298828125 2109.6201171875 2110.77001953125 2111.840087890625 2112.360107421875 2112.820068359375 2113.320068359375 2113.9599609375 2114.7900390625 2115.429931640625 2115.780029296875 2116.110107421875 2116.419921875 2116.8701171875 2117.2900390625 2117.610107421875 2117.949951171875 2118.429931640625 2118.929931640625 2119.39990234375 2119.969970703125 2120.64990234375 2121.31005859375 2121.9599609375 2122.72998046875 2123.449951171875 2124.14990234375 2124.780029296875 2125.389892578125 2125.9599609375 2126.429931640625 2127.030029296875 2127.820068359375 2128.590087890625 2129.25 2129.9599609375 2130.72998046875 2131.39990234375 2132.0400390625 2132.60009765625 2133.02001953125 2133.419921875 2133.89990234375 2134.320068359375 2134.699951171875 2135.18994140625 2135.669921875 2136.080078125 2136.60009765625 2137.1201171875 2137.60009765625 2138.090087890625 2138.5 2138.699951171875 2138.889892578125 2139.080078125 2139.179931640625 2139.35009765625 2139.590087890625 2139.75 2139.68994140625 2139.6298828125 2139.780029296875 2140 2140.159912109375 2140.35009765625 2140.610107421875 2140.75 2140.85009765625 2140.8701171875 2140.780029296875 2140.669921875 2140.81005859375 2140.989990234375 2141.06005859375 2141.070068359375 2141.030029296875 2141.080078125 2141.2900390625 2141.52001953125 2141.669921875 2141.699951171875 2141.7900390625 2141.860107421875 2141.97998046875 2142.080078125 2142.139892578125 2142.179931640625 2142.25 2142.330078125 2142.3701171875 2142.449951171875 2142.5400390625 2142.56005859375 2142.679931640625 2142.8701171875 2143.030029296875 2143.18994140625 2143.239990234375 2143.22998046875 2143.239990234375 2143.219970703125 2143.320068359375 2143.47998046875 2143.800048828125 2144.090087890625 2144.3701171875 2144.6201171875 2144.75 2144.919921875 2144.97998046875 2145.030029296875 2145.06005859375 2144.929931640625 2144.800048828125 2144.820068359375 2144.8798828125 2145.050048828125 2145.239990234375 2145.60009765625 2145.949951171875 2146.199951171875 2146.330078125 2146.409912109375 2146.580078125 2146.639892578125 2146.449951171875 2146.489990234375 2146.77001953125 2147.010009765625 2147.22998046875 2147.3701171875 2147.510009765625 2147.610107421875 2147.489990234375 2147.300048828125 2147.280029296875 2147.5 2147.75 2148.02001953125 2148.260009765625 2148.4599609375 2148.610107421875 2148.72998046875 2148.830078125 2148.9599609375 2149.090087890625 2149.110107421875 2149.030029296875 2148.909912109375 2148.659912109375 2148.22998046875 2148.06005859375 2148.070068359375 2148.27001953125 2148.47998046875 2148.580078125 2148.340087890625 2148.179931640625 2148.14990234375
2099.070068359375 2099.860107421875 2100.3701171875 2100.52001953125 2101.239990234375 2102.030029296875 2102.679931640625 2103.070068359375 2103.639892578125 2104.22998046875 2104.4599609375 2104.669921875 2105.090087890625 2105.5 2106.080078125 2106.8798828125 2107.780029296875 2108.830078125 2109.929931640625 2110.760009765625 2111.239990234375 2111.780029296875 2112.3701171875 2113.39990234375 2114.219970703125 2114.800048828125 2115.330078125 2115.800048828125 2116.10009765625 2116.47998046875 2116.840087890625 2117.139892578125 2117.47998046875 2117.830078125 2118.300048828125 2118.929931640625 2119.580078125 2120.320068359375 2121.080078125 2121.9599609375 2122.85009765625 2123.52001953125 2124.2099609375 2124.919921875 2125.510009765625 2126.02001953125 2126.429931640625 2126.969970703125 2127.610107421875 2128.260009765625 2128.8798828125 2129.68994140625 2130.6201171875 2131.389892578125 2132.080078125 2132.590087890625 2133.06005859375 2133.530029296875 2134.02001953125 2134.389892578125 2134.820068359375 2135.35009765625 2135.840087890625 2136.280029296875 2136.780029296875 2137.330078125 2137.889892578125 2138.43994140625 2138.7900390625 2139.06005859375 2139.389892578125 2139.530029296875 2139.669921875 2139.840087890625 2139.989990234375 2140.139892578125 2140.1298828125 2139.97998046875 2140.050048828125 2140.27001953125 2140.530029296875 2140.840087890625 2141.139892578125 2141.22998046875 2141.2099609375 2141.14990234375 2141.090087890625 2141.050048828125 2141.159912109375 2141.239990234375 2141.320068359375 2141.3798828125 2141.360107421875 2141.39990234375 2141.60009765625 2141.780029296875 2141.840087890625 2141.8701171875 2142.110107421875 2142.320068359375 2142.43994140625 2142.530029296875 2142.570068359375 2142.610107421875 2142.68994140625 2142.75 2142.820068359375 2142.89990234375 2143.010009765625 2143.1298828125 2143.2900390625 2143.429931640625 2143.6201171875 2143.77001953125 2143.830078125 2143.8701171875 2143.8701171875 2143.93994140625 2144.22998046875 2144.5 2144.7900390625 2145.010009765625 2145.35009765625 2145.590087890625 2145.6298828125 2145.72998046875 2145.739990234375 2145.72998046875 2145.590087890625 2145.39990234375 2145.27001953125 2145.31005859375 2145.300048828125 2145.4599609375 2145.699951171875 2146 2146.409912109375 2146.659912109375 2146.81005859375 2146.93994140625 2147.139892578125 2146.989990234375 2146.64990234375 2146.75 2147.090087890625 2147.39990234375 2147.72998046875 2147.93994140625 2148.030029296875 2148.1298828125 2148.02001953125 2147.830078125 2147.860107421875 2147.949951171875 2148 2148.25 2148.469970703125 2148.530029296875 2148.27001953125 2148 2148.02001953125 2148.2900390625 2148.469970703125 2148.449951171875 2148.2900390625 2148.300048828125 2148.1201171875 2147.68994140625 2147.469970703125 2147.39990234375 2147.3798828125 2147.530029296875 2147.669921875 2147.35009765625 2147.139892578125 2147.169921875
2098.52001953125 2099.18994140625 2099.64990234375 2099.97998046875 2100.6201171875 2101.389892578125 2102.1298828125 2102.6201171875 2103 2103.429931640625 2103.81005859375 2104.27001953125 2104.760009765625 2105.219970703125 2105.75 2106.340087890625 2107.4599609375 2108.550048828125 2109.22998046875 2109.56005859375 2110.280029296875 2111.090087890625 2111.840087890625 2112.89990234375 2113.739990234375 2114.330078125 2114.889892578125 2115.340087890625 2115.68994140625 2115.97998046875 2116.159912109375 2116.330078125 2116.820068359375 2117.27001953125 2117.7900390625 2118.449951171875 2119.159912109375 2120.050048828125 2121.010009765625 2122.06005859375 2122.909912109375 2123.419921875 2124.080078125 2124.909912109375 2125.469970703125 2125.949951171875 2126.3701171875 2126.909912109375 2127.449951171875 2128.010009765625 2128.6201171875 2129.550048828125 2130.590087890625 2131.360107421875 2131.97998046875 2132.489990234375 2133.010009765625 2133.5400390625 2134.010009765625 2134.300048828125 2134.739990234375 2135.35009765625 2135.889892578125 2136.35009765625 2136.889892578125 2137.47998046875 2138.070068359375 2138.60009765625 2138.97998046875 2139.409912109375 2139.780029296875 2139.929931640625 2140.1298828125 2140.330078125 2140.39990234375 2140.43994140625 2140.43994140625 2140.2900390625 2140.320068359375 2140.530029296875 2140.81005859375 2141.169921875 2141.409912109375 2141.510009765625 2141.5400390625 2141.469970703125 2141.4599609375 2141.449951171875 2141.530029296875 2141.639892578125 2141.760009765625 2141.7900390625 2141.679931640625 2141.719970703125 2141.85009765625 2141.909912109375 2141.89990234375 2142.030029296875 2142.389892578125 2142.669921875 2142.81005859375 2142.929931640625 2143.010009765625 2143.06005859375 2143.110107421875 2143.169921875 2143.27001953125 2143.3798828125 2143.489990234375 2143.64990234375 2143.81005859375 2143.909912109375 2144.06005859375 2144.280029296875 2144.43994140625 2144.550048828125 2144.72998046875 2145.1298828125 2145.39990234375 2145.52001953125 2145.610107421875 2145.780029296875 2146.169921875 2146.419921875 2146.39990234375 2146.39990234375 2146.389892578125 2146.300048828125 2146.0400390625 2145.820068359375 2145.81005859375 2145.949951171875 2145.889892578125 2145.989990234375 2146.300048828125 2146.64990234375 2146.989990234375 2147.300048828125 2147.56005859375 2147.760009765625 2147.860107421875 2147.3701171875 2146.800048828125 2146.97998046875 2147.489990234375 2147.800048828125 2148.110107421875 2148.409912109375 2148.4599609375 2148.5 2148.330078125 2148.1298828125 2148.080078125 2147.8798828125 2147.77001953125 2148 2148.1201171875 2147.889892578125 2147.239990234375 2146.780029296875 2146.830078125 2147.090087890625 2147.260009765625 2147.280029296875 2147.219970703125 2147.219970703125 2147.0400390625 2146.6298828125 2146.5 2146.699951171875 2146.639892578125 2146.510009765625 2146.590087890625 2146.43994140625 2146.340087890625 2146.260009765625
2097.820068359375 2098.47998046875 2099.02001953125 2099.610107421875 2100.39990234375 2101.0400390625 2101.530029296875 2101.97998046875 2102.429931640625 2102.8798828125 2103.39990234375 2103.929931640625 2104.3701171875 2104.840087890625 2105.35009765625 2105.840087890625 2106.699951171875 2107.6298828125 2108.080078125 2108.27001953125 2109.449951171875 2110.639892578125 2111.449951171875 2112.2900390625 2113.1201171875 2113.739990234375 2114.3798828125 2114.81005859375 2115.050048828125 2115.199951171875 2115.300048828125 2115.6201171875 2116.239990234375 2116.89990234375 2117.469970703125 2118.080078125 2118.949951171875 2120.070068359375 2121.06005859375 2121.889892578125 2122.6201171875 2123.179931640625 2123.85009765625 2124.7099609375 2125.340087890625 2125.760009765625 2126.179931640625 2126.72998046875 2127.27001953125 2127.7900390625 2128.43994140625 2129.43994140625 2130.47998046875 2131.110107421875 2131.699951171875 2132.330078125 2132.8798828125 2133.39990234375 2133.8701171875 2134.199951171875 2134.6201171875 2135.219970703125 2135.760009765625 2136.219970703125 2136.7900390625 2137.469970703125 2138.1201171875 2138.699951171875 2139.239990234375 2139.699951171875 2139.97998046875 2140.179931640625 2140.4599609375 2140.570068359375 2140.510009765625 2140.530029296875 2140.659912109375 2140.6201171875 2140.659912109375 2140.85009765625 2141.050048828125 2141.320068359375 2141.550048828125 2141.679931640625 2141.77001953125 2141.820068359375 2141.89990234375 2141.919921875 2142.02001953125 2142.1298828125 2142.179931640625 2142.14990234375 2142.06005859375 2142.090087890625 2142.14990234375 2142.1298828125 2142.110107421875 2142.330078125 2142.739990234375 2143.02001953125 2143.159912109375 2143.300048828125 2143.389892578125 2143.469970703125 2143.550048828125 2143.639892578125 2143.72998046875 2143.830078125 2143.9599609375 2144.110107421875 2144.25 2144.389892578125 2144.5400390625 2144.85009765625 2145.110107421875 2145.2099609375 2145.43994140625 2145.8798828125 2146 2145.989990234375 2146.080078125 2146.300048828125 2146.6298828125 2146.860107421875 2146.929931640625 2146.919921875 2146.889892578125 2146.77001953125 2146.530029296875 2146.300048828125 2146.35009765625 2146.590087890625 2146.5400390625 2146.510009765625 2146.77001953125 2147.070068359375 2147.330078125 2147.68994140625 2148.06005859375 2148.330078125 2148.320068359375 2147.64990234375 2146.8798828125 2147.02001953125 2147.5 2147.510009765625 2147.610107421875 2147.929931640625 2148.159912109375 2148.159912109375 2147.919921875 2147.719970703125 2147.610107421875 2147.280029296875 2147.10009765625 2147.10009765625 2147.080078125 2146.7099609375 2146.169921875 2145.97998046875 2145.969970703125 2146.010009765625 2146.1201171875 2146.179931640625 2146.219970703125 2146.2099609375 2145.93994140625 2145.510009765625 2145.510009765625 2146.070068359375 2146.219970703125 2146.030029296875 2145.929931640625 2145.840087890625 2145.68994140625 2145.429931640625
2097.1298828125 2097.840087890625 2098.429931640625 2099.110107421875 2100.0400390625 2100.72998046875 2101.080078125 2101.429931640625 2101.93994140625 2102.419921875 2102.97998046875 2103.5400390625 2104.02001953125 2104.419921875 2104.85009765625 2105.35009765625 2105.68994140625 2106.2099609375 2106.72998046875 2107.18994140625 2108.090087890625 2109.610107421875 2111 2111.739990234375 2112.320068359375 2112.89990234375 2113.639892578125 2114.06005859375 2114.179931640625 2114.39990234375 2114.699951171875 2115.2099609375 2115.85009765625 2116.510009765625 2117.090087890625 2117.68994140625 2118.610107421875 2119.840087890625 2120.89990234375 2121.72998046875 2122.5 2123.080078125 2123.6298828125 2124.389892578125 2125.159912109375 2125.570068359375 2125.9599609375 2126.530029296875 2127.070068359375 2127.580078125 2128.260009765625 2129.340087890625 2130.159912109375 2130.68994140625 2131.35009765625 2132.14990234375 2132.64990234375 2133.18994140625 2133.780029296875 2134.179931640625 2134.52001953125 2135.050048828125 2135.530029296875 2136.030029296875 2136.6201171875 2137.330078125 2138.06005859375 2138.77001953125 2139.39990234375 2139.72998046875 2139.93994140625 2140.239990234375 2140.360107421875 2140.139892578125 2139.97998046875 2140.280029296875 2140.760009765625 2140.9599609375 2141.010009765625 2141.139892578125 2141.31005859375 2141.510009765625 2141.77001953125 2141.93994140625 2142.0400390625 2142.179931640625 2142.300048828125 2142.35009765625 2142.43994140625 2142.550048828125 2142.5400390625 2142.5 2142.530029296875 2142.590087890625 2142.610107421875 2142.580078125 2142.5400390625 2142.77001953125 2143.159912109375 2143.449951171875 2143.590087890625 2143.699951171875 2143.780029296875 2143.909912109375 2144.02001953125 2144.06005859375 2144.080078125 2144.169921875 2144.429931640625 2144.580078125 2144.669921875 2144.820068359375 2145.030029296875 2145.389892578125 2145.659912109375 2145.760009765625 2145.93994140625 2146.14990234375 2146.1298828125 2146.169921875 2146.3798828125 2146.669921875 2146.93994140625 2147.179931640625 2147.35009765625 2147.330078125 2147.31005859375 2147.219970703125 2147.02001953125 2146.77001953125 2146.77001953125 2146.969970703125 2146.89990234375 2146.669921875 2146.8701171875 2147.18994140625 2147.469970703125 2147.7900390625 2148.080078125 2148.199951171875 2148.1201171875 2147.5400390625 2146.800048828125 2146.760009765625 2146.929931640625 2146.780029296875 2146.7900390625 2147.090087890625 2147.47998046875 2147.530029296875 2147.280029296875 2147.110107421875 2146.909912109375 2146.6298828125 2146.419921875 2146.18994140625 2145.9599609375 2145.56005859375 2145.340087890625 2145.340087890625 2145.25 2145.25 2145.35009765625 2145.340087890625 2145.340087890625 2145.5400390625 2145.179931640625 2144.72998046875 2144.7900390625 2145.199951171875 2145.3798828125 2145.300048828125 2145.1298828125 2145.159912109375 2145.030029296875 2144.780029296875
2096.449951171875 2097.2099609375 2097.85009765625 2098.56005859375 2099.489990234375 2100.260009765625 2100.77001953125 2101.080078125 2101.610107421875 2102.02001953125 2102.340087890625 2102.81005859375 2103.489990234375 2103.97998046875 2104.389892578125 2104.8798828125 2105.239990234375 2105.739990234375 2106.280029296875 2106.89990234375 2107.60009765625 2108.7099609375 2109.68994140625 2110.300048828125 2111.02001953125 2111.659912109375 2112.510009765625 2113 2113.300048828125 2113.7900390625 2114.31005859375 2114.81005859375 2115.5 2116.14990234375 2116.7099609375 2117.340087890625 2118.080078125 2119.340087890625 2120.739990234375 2121.830078125 2122.47998046875 2122.919921875 2123.320068359375 2124.06005859375 2124.919921875 2125.3701171875 2125.780029296875 2126.340087890625 2126.8701171875 2127.330078125 2127.89990234375 2128.93994140625 2129.820068359375 2130.340087890625 2131.010009765625 2131.89990234375 2132.530029296875 2133.1201171875 2133.68994140625 2134.0400390625 2134.389892578125 2134.85009765625 2135.2900390625 2135.840087890625 2136.47998046875 2137.199951171875 2137.9599609375 2138.580078125 2138.919921875 2139.22998046875 2139.699951171875 2139.860107421875 2139.5 2139.2099609375 2139.52001953125 2140.179931640625 2140.75 2141.18994140625 2141.360107421875 2141.4599609375 2141.64990234375 2141.81005859375 2141.989990234375 2142.2099609375 2142.35009765625 2142.52001953125 2142.68994140625 2142.780029296875 2142.8701171875 2142.8701171875 2142.889892578125 2142.93994140625 2143.030029296875 2143.1298828125 2143.110107421875 2143.080078125 2143.179931640625 2143.389892578125 2143.610107421875 2143.81005859375 2143.9599609375 2144.070068359375 2144.199951171875 2144.330078125 2144.419921875 2144.5 2144.6298828125 2144.760009765625 2144.840087890625 2145.010009765625 2145.1201171875 2145.300048828125 2145.610107421875 2145.860107421875 2146.070068359375 2146.25 2146.4599609375 2146.6201171875 2146.719970703125 2146.8798828125 2147.1298828125 2147.31005859375 2147.47998046875 2147.570068359375 2147.659912109375 2147.7099609375 2147.75 2147.7099609375 2147.5 2147.110107421875 2147.06005859375 2147.1201171875 2146.889892578125 2146.6298828125 2146.8701171875 2147.31005859375 2147.6201171875 2147.75 2147.75 2147.659912109375 2147.570068359375 2147.239990234375 2146.570068359375 2146.389892578125 2146.409912109375 2146.22998046875 2146.300048828125 2146.6201171875 2146.949951171875 2147 2146.659912109375 2146.570068359375 2146.4599609375 2145.97998046875 2145.52001953125 2145.159912109375 2144.8701171875 2144.760009765625 2144.669921875 2144.52001953125 2144.43994140625 2144.300048828125 2144.409912109375 2144.5400390625 2144.550048828125 2144.659912109375 2144.27001953125 2143.6298828125 2143.659912109375 2144.360107421875 2144.25 2143.830078125 2143.68994140625 2143.860107421875 2144.02001953125 2143.9599609375
2095.659912109375 2096.52001953125 2097.35009765625 2098.10009765625 2098.8701171875 2099.590087890625 2100.2900390625 2100.77001953125 2101.159912109375 2101.469970703125 2101.830078125 2102.550048828125 2103.280029296875 2103.580078125 2103.830078125 2104.300048828125 2104.75 2105.330078125 2105.949951171875 2106.6298828125 2107.3701171875 2108.050048828125 2108.47998046875 2108.889892578125 2109.56005859375 2110.179931640625 2111.110107421875 2111.929931640625 2112.580078125 2113.280029296875 2113.97998046875 2114.489990234375 2115.090087890625 2115.7099609375 2116.31005859375 2116.9599609375 2117.610107421875 2118.919921875 2120.449951171875 2121.6298828125 2122.2900390625 2122.739990234375 2123.080078125 2123.679931640625 2124.389892578125 2124.909912109375 2125.35009765625 2125.909912109375 2126.429931640625 2126.919921875 2127.429931640625 2128.280029296875 2129.22998046875 2129.75 2130.25 2131.110107421875 2132.139892578125 2132.93994140625 2133.52001953125 2133.860107421875 2134.31005859375 2134.760009765625 2135.169921875 2135.68994140625 2136.18994140625 2136.68994140625 2137.340087890625 2137.8798828125 2138.0400390625 2138.469970703125 2139.030029296875 2138.85009765625 2138.35009765625 2138.639892578125 2139.47998046875 2140.219970703125 2140.909912109375 2141.4599609375 2141.659912109375 2141.780029296875 2142 2142.179931640625 2142.2900390625 2142.5 2142.68994140625 2142.889892578125 2143.070068359375 2143.199951171875 2143.27001953125 2143.320068359375 2143.419921875 2143.5 2143.64990234375 2143.85009765625 2143.93994140625 2143.969970703125 2144.070068359375 2144.22998046875 2144.280029296875 2144.340087890625 2144.409912109375 2144.469970703125 2144.60009765625 2144.679931640625 2144.75 2144.7900390625 2144.8798828125 2145.010009765625 2145.159912109375 2145.39990234375 2145.570068359375 2145.7900390625 2146 2146.110107421875 2146.39990234375 2146.75 2147.080078125 2147.360107421875 2147.550048828125 2147.719970703125 2147.93994140625 2148.070068359375 2148.10009765625 2148.050048828125 2148.070068359375 2148.1201171875 2148.070068359375 2148 2147.85009765625 2147.5 2147.419921875 2147.2099609375 2146.75 2146.5400390625 2146.81005859375 2147.239990234375 2147.419921875 2147.260009765625 2147.050048828125 2146.89990234375 2146.77001953125 2146.60009765625 2146.080078125 2145.81005859375 2145.7900390625 2145.719970703125 2145.820068359375 2146.10009765625 2146.320068359375 2146.320068359375 2146.010009765625 2145.909912109375 2145.760009765625 2145.239990234375 2144.7900390625 2144.3798828125 2143.989990234375 2143.860107421875 2143.780029296875 2143.760009765625 2143.669921875 2143.449951171875 2143.580078125 2143.780029296875 2143.89990234375 2143.989990234375 2143.550048828125 2142.47998046875 2142.139892578125 2143.050048828125 2142.739990234375 2142.3798828125 2142.510009765625 2142.530029296875 2142.580078125 2142.570068359375
2095.070068359375 2095.860107421875 2096.830078125 2097.679931640625 2098.389892578125 2099.06005859375 2099.7900390625 2100.449951171875 2100.72998046875 2100.9599609375 2101.409912109375 2102.27001953125 2102.830078125 2103 2103.2099609375 2103.7099609375 2104.27001953125 2104.989990234375 2105.780029296875 2106.52001953125 2107.219970703125 2107.6298828125 2107.9599609375 2108.39990234375 2108.9599609375 2109.60009765625 2110.510009765625 2111.4599609375 2112.340087890625 2113.18994140625 2113.8798828125 2114.31005859375 2114.840087890625 2115.409912109375 2115.989990234375 2116.56005859375 2117.35009765625 2118.72998046875 2120.10009765625 2121.110107421875 2121.989990234375 2122.6298828125 2122.969970703125 2123.31005859375 2123.840087890625 2124.419921875 2124.8701171875 2125.389892578125 2125.89990234375 2126.5 2127.0400390625 2127.64990234375 2128.39990234375 2128.93994140625 2129.550048828125 2130.5 2131.830078125 2132.760009765625 2133.340087890625 2133.719970703125 2134.2099609375 2134.590087890625 2134.860107421875 2135.1298828125 2135.22998046875 2135.389892578125 2135.8701171875 2136.5 2136.800048828125 2137.27001953125 2137.68994140625 2137.52001953125 2137.780029296875 2139.10009765625 2140.2099609375 2140.75 2141.300048828125 2141.68994140625 2141.889892578125 2142.080078125 2142.35009765625 2142.52001953125 2142.6201171875 2142.7900390625 2143.030029296875 2143.2900390625 2143.43994140625 2143.590087890625 2143.780029296875 2144.070068359375 2144.27001953125 2144.31005859375 2144.5 2144.6201171875 2144.75 2144.8701171875 2144.889892578125 2144.929931640625 2144.919921875 2144.8798828125 2144.8701171875 2144.919921875 2144.969970703125 2145 2145.090087890625 2145.179931640625 2145.25 2145.419921875 2145.64990234375 2145.830078125 2146 2146.18994140625 2146.239990234375 2146.340087890625 2146.719970703125 2147.14990234375 2147.4599609375 2147.719970703125 2147.889892578125 2148.030029296875 2148.219970703125 2148.340087890625 2148.3701171875 2148.2900390625 2148.260009765625 2148.159912109375 2147.949951171875 2147.81005859375 2147.6201171875 2147.4599609375 2147.550048828125 2147.260009765625 2146.68994140625 2146.320068359375 2146.39990234375 2146.68994140625 2146.830078125 2146.659912109375 2146.47998046875 2146.35009765625 2146.110107421875 2145.89990234375 2145.280029296875 2144.780029296875 2144.72998046875 2144.699951171875 2144.719970703125 2145.110107421875 2145.35009765625 2145.22998046875 2145.0400390625 2144.830078125 2144.580078125 2144.27001953125 2143.949951171875 2143.5 2142.9599609375 2142.679931640625 2142.669921875 2142.81005859375 2142.719970703125 2142.570068359375 2142.760009765625 2142.89990234375 2143.179931640625 2143.300048828125 2142.699951171875 2141.300048828125 2140.75 2141.590087890625 2141.27001953125 2141.1298828125 2141.3798828125 2141.139892578125 2140.929931640625 2140.929931640625
2094.7099609375 2095.340087890625 2096.2900390625 2097.280029296875 2098.0400390625 2098.68994140625 2099.340087890625 2099.9599609375 2100.419921875 2100.60009765625 2100.820068359375 2101.169921875 2101.739990234375 2102.239990234375 2102.75 2103.330078125 2103.929931640625 2104.77001953125 2105.679931640625 2106.360107421875 2106.7900390625 2107.010009765625 2107.469970703125 2108.169921875 2108.72998046875 2109.550048828125 2110.56005859375 2111.449951171875 2112.280029296875 2113.18994140625 2113.780029296875 2114.110107421875 2114.64990234375 2115.10009765625 2115.52001953125 2116.260009765625 2117.25 2118.6201171875 2119.81005859375 2120.760009765625 2121.7900390625 2122.489990234375 2122.840087890625 2122.9599609375 2123.330078125 2123.93994140625 2124.489990234375 2125.070068359375 2125.64990234375 2126.320068359375 2126.93994140625 2127.510009765625 2128 2128.60009765625 2129.4599609375 2130.360107421875 2131.6298828125 2132.56005859375 2133.139892578125 2133.5 2133.760009765625 2134.010009765625 2134.14990234375 2133.989990234375 2133.800048828125 2133.830078125 2134.139892578125 2134.590087890625 2135.280029296875 2135.969970703125 2136.39990234375 2136.909912109375 2138.25 2139.7900390625 2140.590087890625 2141 2141.419921875 2141.780029296875 2142.110107421875 2142.3701171875 2142.510009765625 2142.580078125 2142.719970703125 2142.8798828125 2143.090087890625 2143.43994140625 2143.639892578125 2143.969970703125 2144.4599609375 2144.840087890625 2145.010009765625 2145.1298828125 2145.43994140625 2145.52001953125 2145.580078125 2145.56005859375 2145.52001953125 2145.489990234375 2145.3701171875 2145.260009765625 2145.300048828125 2145.3701171875 2145.449951171875 2145.4599609375 2145.6298828125 2145.780029296875 2145.860107421875 2146 2146.10009765625 2146.219970703125 2146.449951171875 2146.659912109375 2146.580078125 2146.68994140625 2147.02001953125 2147.330078125 2147.530029296875 2147.72998046875 2147.93994140625 2148.1298828125 2148.360107421875 2148.409912109375 2148.409912109375 2148.2099609375 2147.85009765625 2147.4599609375 2147.219970703125 2147.139892578125 2146.93994140625 2147 2147.2099609375 2147.010009765625 2146.590087890625 2146.030029296875 2145.860107421875 2145.8701171875 2145.7900390625 2145.85009765625 2145.8701171875 2145.699951171875 2145.47998046875 2145.110107421875 2144.2099609375 2143.60009765625 2143.679931640625 2143.35009765625 2143.080078125 2143.659912109375 2144.02001953125 2143.8798828125 2143.639892578125 2143.31005859375 2143.239990234375 2143.1201171875 2142.659912109375 2142.35009765625 2142 2141.699951171875 2141.68994140625 2141.6298828125 2141.679931640625 2141.860107421875 2142.06005859375 2142.10009765625 2142.320068359375 2142.39990234375 2141.72998046875 2140.429931640625 2140.010009765625 2140.510009765625 2140.18994140625 2139.989990234375 2140.10009765625 2139.929931640625 2139.7099609375 2139.719970703125
